# .PCD v0.7 - Point Cloud Data file format
VERSION 0.7
FIELDS x y z normal_x normal_y normal_z rgb
SIZE 4 4 4 4 4 4 4
TYPE F F F F F F F
COUNT 1 1 1 1 1 1 1
WIDTH 795
HEIGHT 1
VIEWPOINT 0 0 0 1 0 0 0
POINTS 795
DATA ascii
-8.617676478 75.76065478 -151.6288069 0 0 1 1.567325708e-38
-8.613494961 75.36867048 -151.5947512 0 0 1 1.585764834e-38
-8.603561053 74.95367829 -151.513846 0 0 1 1.594984397e-38
-8.608411863 74.59835608 -151.5533527 0 0 1 1.594984397e-38
-8.605378127 74.21138929 -151.5286449 0 0 1 1.613423523e-38
-8.598367839 73.80876353 -151.4715507 0 0 1 1.641082212e-38
-8.593159124 73.41353358 -151.4291291 0 0 1 1.650301775e-38
-8.589397971 73.02419991 -151.398497 0 0 1 1.641082212e-38
-8.589289129 72.64929146 -151.3976105 0 0 1 1.631862649e-38
-8.597799283 72.3078979 -151.4669202 0 0 1 1.631862649e-38
-8.58247263 71.87396459 -151.3420946 0 0 1 1.714838715e-38
-8.57704859 71.47875099 -151.2979193 0 0 1 1.668740901e-38
-8.524330164 70.90273447 -150.8685622 0 0 1 1.650301775e-38
-8.524793343 70.53132569 -150.8723345 0 0 1 1.659521338e-38
-8.522919907 70.15104889 -150.8570766 0 0 1 1.696399589e-38
-8.523842438 69.78138029 -150.86459 0 0 1 1.724058278e-38
-8.521963578 69.4011778 -150.8492879 0 0 1 1.733277841e-38
-8.572113146 69.21495169 -151.2577234 0 0 1 1.733277841e-38
-8.578983763 68.86628397 -151.31368 0 0 1 1.751716967e-38
-8.585399466 68.51566237 -151.3659318 0 0 1 1.742497404e-38
-8.587352638 68.14842093 -151.3818391 0 0 1 1.76093653e-38
-8.58941391 67.78149495 -151.3986268 0 0 1 1.751716967e-38
-8.585817746 67.39397152 -151.3693384 0 0 1 1.742497404e-38
-8.594033765 67.04918713 -151.4362525 0 0 1 1.751716967e-38
-8.595603571 66.68023969 -151.4490375 0 0 1 1.779375656e-38
-8.603806992 66.33488222 -151.515849 0 0 1 1.797814782e-38
-8.59872559 65.94209268 -151.4744643 0 0 1 1.807034345e-38
-8.605716709 65.592068 -151.5314024 0 0 1 1.825473471e-38
-8.612009574 65.2393141 -151.5826537 0 0 1 1.862351723e-38
-8.616257662 64.87918045 -151.6172516 0 0 1 1.862351723e-38
-8.623149613 64.52803646 -151.673382 0 0 1 1.85313216e-38
-8.62120846 64.14618658 -151.6575726 0 0 1 1.843912597e-38
-8.623889951 63.78024585 -151.6794116 0 0 1 1.85313216e-38
-8.632818364 63.43546473 -151.7521277 0 0 1 1.825473471e-38
-8.630908265 63.05364249 -151.7365712 0 0 1 1.816253908e-38
-8.637007126 62.69884105 -151.7862424 0 0 1 1.880790849e-38
-8.641113522 62.33713095 -151.8196863 0 0 1 1.880790849e-38
-8.636609369 61.94663462 -151.7830029 0 0 1 1.890010412e-38
-8.639597298 61.58107192 -151.8073377 0 0 1 1.890010412e-38
-8.643357962 61.21792621 -151.8379658 0 0 1 1.899229975e-38
-8.647530185 60.85597211 -151.8719459 0 0 1 1.908449538e-38
-8.649480749 60.48664431 -151.8878319 0 0 1 1.899229975e-38
-8.646754478 60.10216355 -151.8656282 0 0 1 1.890010412e-38
-8.649089339 59.73400371 -151.8846441 0 0 1 1.908449538e-38
-8.655833086 59.37978287 -151.9395676 0 0 1 1.94532779e-38
-8.659073971 59.01421161 -151.9659624 0 0 1 1.963766916e-38
-8.664852726 58.65648533 -152.0130266 0 0 1 1.954547353e-38
-8.675961964 58.3151705 -152.1035041 0 0 1 1.963766916e-38
-8.677716297 57.94438611 -152.117792 0 0 1 1.963766916e-38
-8.689428249 57.60422224 -152.2131782 0 0 1 1.963766916e-38
-8.695965295 57.24774073 -152.2664182 0 0 1 1.963766916e-38
-8.750893101 57.03819532 -152.7137692 0 0 1 1.963766916e-38
-8.812763571 56.84741585 -153.2176638 0 0 1 1.954547353e-38
-8.841532106 56.55478477 -153.4519647 0 0 1 1.926888664e-38
-8.844824287 56.18503796 -153.4787774 0 0 1 1.936108227e-38
-8.850191241 55.82130255 -153.5224877 0 0 1 1.94532779e-38
-8.85928267 55.46830521 -153.5965314 0 0 1 1.954547353e-38
-8.863980039 55.10210643 -153.6347884 0 0 1 1.94532779e-38
-8.87158703 54.74415885 -153.6967424 0 0 1 1.982206042e-38
-8.876539388 54.3782575 -153.7370761 0 0 1 1.991425605e-38
-8.880040482 54.00800515 -153.7655903 0 0 1 2.028303857e-38
-8.883991848 53.63889071 -153.7977716 0 0 1 2.03752342e-38
-8.881219053 53.25065294 -153.775189 0 0 1 2.028303857e-38
-8.886394266 52.88478252 -153.8173377 0 0 1 2.055962546e-38
-8.893333401 52.52360731 -153.8738524 0 0 1 2.046742983e-38
-8.905642404 52.17697261 -153.9741012 0 0 1 2.028303857e-38
-8.915400785 51.822854 -154.0535768 0 0 1 2.03752342e-38
-8.99000024 51.64468223 -154.6611406 0 0 1 2.03752342e-38
-9.061490773 51.45511254 -155.2433843 0 0 1 2.019084294e-38
-9.083830253 51.13097294 -155.4253248 0 0 1 2.046742983e-38
-9.091437609 50.76675854 -155.4872817 0 0 1 2.028303857e-38
-9.100846903 50.40699294 -155.5639142 0 0 1 2.019084294e-38
-9.10758721 50.03985857 -155.6188096 0 0 1 2.028303857e-38
-9.120073711 49.68738529 -155.720504 0 0 1 2.065182109e-38
-9.119675957 49.30118613 -155.7172646 0 0 1 2.03752342e-38
-9.121671258 48.92112541 -155.733515 0 0 1 2.065182109e-38
-9.128579543 48.55345478 -155.7897785 0 0 1 2.03752342e-38
-9.1373881 48.19029093 -155.8615184 0 0 1 2.03752342e-38
-9.146958748 47.82867586 -155.9394651 0 0 1 2.055962546e-38
-9.161547248 47.4791086 -156.0582789 0 0 1 2.046742983e-38
-9.299413117 47.43193084 -157.1811063 0 0 1 2.019084294e-38
-9.33375097 47.12684451 -157.4607656 0 0 1 2.03752342e-38
-9.344447321 46.76322379 -157.5478804 0 0 1 2.046742983e-38
-9.353112119 46.39430197 -157.6184496 0 0 1 2.055962546e-38
-9.361505121 46.02438495 -157.6868051 0 0 1 2.03752342e-38
-9.365504635 45.6437745 -157.7193785 0 0 1 2.03752342e-38
-9.37162738 45.26796451 -157.7692443 0 0 1 2.074401672e-38
-9.375374154 44.88640348 -157.7997593 0 0 1 2.074401672e-38
-9.394076018 44.53903628 -157.9520737 0 0 1 2.092840798e-38
-9.398625265 44.15869881 -157.9891244 0 0 1 2.12971905e-38
-9.556332259 44.12373837 -159.2735448 0 0 1 2.12971905e-38
-9.59469495 43.81555896 -159.5859838 0 0 1 2.111279924e-38
-9.601605679 43.43613801 -159.6422672 0 0 1 2.102060361e-38
-9.612882831 43.06602643 -159.7341122 0 0 1 2.083621235e-38
-9.615325711 42.67624014 -159.7540079 0 0 1 2.083621235e-38
-9.618588976 42.28812378 -159.780585 0 0 1 2.102060361e-38
-9.62566583 41.90801936 -159.8382214 0 0 1 2.102060361e-38
-9.638205449 41.53918478 -159.9403484 0 0 1 2.092840798e-38
-9.658922924 41.18697822 -160.1090787 0 0 1 2.092840798e-38
-9.817590525 41.12017424 -161.4013226 0 0 1 2.092840798e-38
-9.855956157 40.79978249 -161.7137856 0 0 1 2.111279924e-38
-9.869117382 40.42656302 -161.8209752 0 0 1 2.074401672e-38
-9.877141034 40.04246365 -161.8863226 0 0 1 2.083621235e-38
-9.886030985 39.65976872 -161.9587254 0 0 1 2.092840798e-38
-9.889935283 39.26687289 -161.9905234 0 0 1 2.111279924e-38
-9.902919956 38.89156338 -162.0962751 0 0 1 2.120499487e-38
-9.9214202 38.52639739 -162.2469474 0 0 1 2.092840798e-38
-10.08486993 38.43788646 -163.5781386 0 0 1 2.102060361e-38
-10.12565925 38.11051695 -163.910341 0 0 1 2.120499487e-38
-10.13999031 37.73193491 -164.0270581 0 0 1 2.102060361e-38
-10.14732569 37.33981013 -164.0868 0 0 1 2.12971905e-38
-10.15828652 36.95403594 -164.1760688 0 0 1 2.111279924e-38
-10.1697085 36.56865623 -164.2690933 0 0 1 2.102060361e-38
-10.19405744 36.20599314 -164.4673996 0 0 1 2.092840798e-38
-10.36956342 36.11031391 -165.8967811 0 0 1 2.055962546e-38
-10.39947751 35.75239727 -166.1404118 0 0 1 2.083621235e-38
-10.41564823 35.36946544 -166.2721117 0 0 1 2.092840798e-38
-10.42629693 34.9764266 -166.3588384 0 0 1 2.028303857e-38
-10.43582015 34.58105422 -166.4363988 0 0 1 2.083621235e-38
-10.44807846 34.18987131 -166.5362348 0 0 1 2.055962546e-38
-10.63492239 34.08659048 -168.0579564 0 0 1 2.092840798e-38
-10.68667573 33.75534853 -168.4794536 0 0 1 2.046742983e-38
-10.70445915 33.36727557 -168.6242879 0 0 1 2.046742983e-38
-10.70945039 32.95812795 -168.6649383 0 0 1 2.046742983e-38
-10.72253662 32.56149896 -168.7715171 0 0 1 2.065182109e-38
-10.75167536 32.18924279 -169.0088331 0 0 1 2.083621235e-38
-10.96181281 32.09292502 -170.7202652 0 0 1 2.03752342e-38
-10.98202471 31.70118732 -170.884878 0 0 1 2.019084294e-38
-10.99777103 31.30197831 -171.0131215 0 0 1 2.019084294e-38
-11.01008577 30.89708846 -171.113417 0 0 1 1.972986479e-38
-11.04710976 30.52754171 -171.4149532 0 0 1 2.009864731e-38
-11.25784504 30.40496141 -173.1312543 0 0 1 2.046742983e-38
-11.28488122 30.01484754 -173.3514463 0 0 1 2.000645168e-38
-11.30191559 29.60974185 -173.4901802 0 0 1 1.982206042e-38
-11.3117403 29.19407362 -173.570196 0 0 1 1.94532779e-38
-11.36203633 28.83263425 -173.9798243 0 0 1 2.009864731e-38
-11.57449566 28.68477571 -175.7101666 0 0 1 1.991425605e-38
-11.60211872 28.28632819 -175.9351384 0 0 1 1.954547353e-38
-11.62321937 27.87835853 -176.1069894 0 0 1 1.94532779e-38
-11.67778371 27.51200864 -176.5513804 0 0 1 1.926888664e-38
-11.89164563 27.34242124 -178.2931459 0 0 1 1.908449538e-38
-11.92672938 26.94452689 -178.5788801 0 0 1 1.899229975e-38
-11.9477277 26.52819399 -178.7498977 0 0 1 1.890010412e-38
-12.08571369 26.2500612 -179.8737034 0 0 1 1.834693034e-38
-12.23404452 25.97845597 -181.081761 0 0 1 1.807034345e-38
-12.26791305 25.56944157 -181.3575981 0 0 1 1.816253908e-38
-12.33502769 25.19656818 -181.904203 0 0 1 1.797814782e-38
-12.56580116 25.00232046 -183.7837021 0 0 1 1.76093653e-38
-12.61545562 24.60174838 -184.1881052 0 0 1 1.724058278e-38
-12.76287883 24.30356185 -185.3887709 0 0 1 1.696399589e-38
-12.93249721 24.02268595 -186.7702017 0 0 1 1.650301775e-38
-12.98694997 23.61665567 -187.2136839 0 0 1 1.650301775e-38
-13.27005627 23.43874254 -189.5193996 0 0 1 1.60420396e-38
-13.36969284 23.06831936 -190.3308744 0 0 1 1.558106145e-38
-13.66351784 22.88165409 -192.723887 0 0 1 1.456690952e-38
-13.96569965 22.69106297 -195.1849604 0 0 1 1.318397507e-38
-14.22120226 22.44504078 -197.2658621 0 0 1 1.180104062e-38
-29.26965325 35.59888955 -319.8256602 0 0 1 3.687825195e-40
-33.8658004 38.88173227 -357.2582748 0 0 1 2.332549436e-38
-33.88855144 38.01776426 -357.4435672 0 0 1 2.332549436e-38
-33.85323223 37.10374701 -357.1559153 0 0 1 2.332549436e-38
-33.84267186 36.21160218 -357.069908 0 0 1 2.323329873e-38
-33.84690555 35.33180388 -357.1043886 0 0 1 2.31411031e-38
-33.84690555 34.44850878 -357.1043886 0 0 1 2.323329873e-38
-33.87618802 33.58762969 -357.3428752 0 0 1 2.323329873e-38
-33.85533479 32.68820144 -357.1730392 0 0 1 2.323329873e-38
-33.87204228 31.81685313 -357.3091108 0 0 1 2.323329873e-38
-33.86371355 30.92717928 -357.2412787 0 0 1 2.323329873e-38
-33.84267186 30.02913352 -357.069908 0 0 1 2.323329873e-38
-33.8658004 29.1612992 -357.2582748 0 0 1 2.323329873e-38
-33.85953045 28.27358161 -357.2072101 0 0 1 2.332549436e-38
-33.8658004 27.39394773 -357.2582748 0 0 1 2.323329873e-38
-33.87204228 26.51404428 -357.3091108 0 0 1 2.323329873e-38
-24.44494265 20.12288915 -280.5315457 0 0 1 4.609781493e-40
-16.62530591 15.01825619 -216.8457151 0 0 1 3.687825195e-40
-13.45487017 12.75744393 -191.0245881 0 0 1 1.530447456e-38
-13.29747974 12.2025097 -189.7427459 0 0 1 1.641082212e-38
-13.29777558 11.7333314 -189.7451554 0 0 1 1.668740901e-38
-13.16832717 11.20141248 -188.6908827 0 0 1 1.733277841e-38
-13.06782256 10.6881197 -187.8723383 0 0 1 1.714838715e-38
-12.94789348 10.17026752 -186.8955943 0 0 1 1.751716967e-38
-12.9422509 9.705595575 -186.8496392 0 0 1 1.788595219e-38
-12.93444797 9.240280558 -186.7860894 0 0 1 1.899229975e-38
-12.92014806 8.772793173 -186.669626 0 0 1 1.917669101e-38
-12.90769814 8.306552754 -186.5682295 0 0 1 1.917669101e-38
-12.77610872 7.800012872 -185.4965197 0 0 1 1.954547353e-38
-12.63202663 7.29474809 -184.3230652 0 0 1 1.982206042e-38
-12.61603404 6.833993779 -184.1928161 0 0 1 1.991425605e-38
-12.60745832 6.375975584 -184.1229724 0 0 1 2.000645168e-38
-12.60019654 5.918647007 -184.06383 0 0 1 2.03752342e-38
-12.59093058 5.461126518 -183.9883648 0 0 1 2.009864731e-38
-12.59093058 5.006032642 -183.9883648 0 0 1 2.019084294e-38
-12.59093058 4.550938765 -183.9883648 0 0 1 2.055962546e-38
-12.59093058 4.095844889 -183.9883648 0 0 1 2.083621235e-38
-12.58985381 3.640577479 -183.9795952 0 0 1 2.092840798e-38
-12.58931419 3.1854292 -183.9752003 0 0 1 2.102060361e-38
-12.5855137 2.729908522 -183.9442479 0 0 1 2.102060361e-38
-12.58056703 2.274425515 -183.9039605 0 0 1 2.102060361e-38
-12.58222354 1.819673893 -183.9174516 0 0 1 2.111279924e-38
-12.58112005 1.364688731 -183.9084645 0 0 1 2.111279924e-38
-12.57498952 0.9095454883 -183.8585353 0 0 1 2.111279924e-38
-12.57498952 0.4547727441 -183.8585353 0 0 1 2.111279924e-38
-12.57216811 0 -183.8355567 0 0 1 2.111279924e-38
-12.58001316 -0.4548739452 -183.8994495 0 0 1 2.111279924e-38
-12.57103337 -0.9093860949 -183.826315 0 0 1 2.111279924e-38
-12.57890284 -1.364554734 -183.8904067 0 0 1 2.111279924e-38
-12.58222354 -1.819673893 -183.9174516 0 0 1 2.120499487e-38
-12.58605913 -2.274978705 -183.94869 0 0 1 2.092840798e-38
-12.58823248 -2.73023714 -183.9663905 0 0 1 2.065182109e-38
-12.58931419 -3.1854292 -183.9752003 0 0 1 2.055962546e-38
-12.59093058 -3.640751012 -183.9883648 0 0 1 2.046742983e-38
-12.59093058 -4.095844889 -183.9883648 0 0 1 2.028303857e-38
-12.59093058 -4.550938765 -183.9883648 0 0 1 2.019084294e-38
-12.59200746 -5.006271272 -183.9971353 0 0 1 2.019084294e-38
-12.59744457 -5.462701208 -184.041417 0 0 1 2.009864731e-38
-12.60352881 -5.919519679 -184.0909691 0 0 1 2.000645168e-38
-12.61430168 -6.377905616 -184.1787071 0 0 1 2.009864731e-38
-12.62482827 -6.83665117 -184.2644393 0 0 1 1.972986479e-38
-12.77788093 -7.341759803 -185.5109532 0 0 1 1.972986479e-38
-12.91367796 -7.847125479 -186.6169312 0 0 1 1.936108227e-38
-12.92420793 -8.312539363 -186.7026909 0 0 1 1.917669101e-38
-12.93388648 -8.778051617 -186.7815164 0 0 1 1.871571286e-38
-12.93890915 -9.242077967 -186.8224228 0 0 1 1.843912597e-38
-12.94732506 -9.707742171 -186.8909649 0 0 1 1.825473471e-38
-12.97879118 -10.18396106 -187.1472358 0 0 1 1.816253908e-38
-13.24972443 -10.77240113 -189.3538101 0 0 1 1.742497404e-38
-13.28430579 -11.25748577 -189.6354527 0 0 1 1.677960464e-38
-13.30601535 -11.73748115 -189.8122629 0 0 1 1.60420396e-38
-13.4623075 -12.28884146 -191.0851603 0 0 1 1.51200833e-38
-16.54633253 -14.43893513 -216.2025285 0 0 1 5.531737792e-40
-24.09244895 -19.230169 -277.6607148 0 0 1 4.609781493e-40
-33.8658004 -25.62659627 -357.2582748 0 0 1 2.332549436e-38
-33.85743419 -26.50521589 -357.1901375 0 0 1 2.304890747e-38
-33.86996476 -27.39654835 -357.2921908 0 0 1 2.304890747e-38
-33.87825626 -28.28565301 -357.3597197 0 0 1 2.304890747e-38
-33.26174039 -28.75972954 -352.3386008 0 0 1 1.410593137e-38
-18.98657528 -19.85375668 -236.0767109 0 0 1 1.069469306e-38
-18.17691707 -19.86682147 -229.4825739 0 0 1 1.041810617e-38
-17.35871245 -19.84106713 -222.818832 0 0 1 1.05103018e-38
-16.66545337 -19.87547731 -217.1726899 0 0 1 1.069469306e-38
-15.96554773 -19.8768681 -211.4724159 0 0 1 1.069469306e-38
-15.30499613 -19.88097838 -206.0926548 0 0 1 1.05103018e-38
-14.66520092 -19.87520055 -200.881941 0 0 1 1.078688869e-38
-14.21035591 -19.99640395 -197.1775257 0 0 1 1.134006247e-38
-13.48171234 -19.86762365 -191.2432 0 0 1 1.115567121e-38
-12.97045496 -19.89779368 -187.0793428 0 0 1 1.189323625e-38
-12.42615336 -19.87807547 -182.646362 0 0 1 1.115567121e-38
-11.67112174 -19.6453955 -176.497123 0 0 1 1.936108227e-38
-11.63642647 -20.04980881 -176.2145526 0 0 1 2.175816865e-38
-11.63804893 -20.48721038 -176.2277665 0 0 1 2.185036428e-38
-11.63588748 -20.92101844 -176.2101629 0 0 1 2.194255991e-38
-11.63481222 -21.3558116 -176.2014056 0 0 1 2.194255991e-38
-11.63588748 -21.79272755 -176.2101629 0 0 1 2.185036428e-38
-11.63481222 -22.22747738 -176.2014056 0 0 1 2.166597302e-38
-11.63427595 -22.66274851 -176.1970381 0 0 1 2.157377739e-38
-11.63427595 -23.0985706 -176.1970381 0 0 1 2.157377739e-38
-11.63588748 -23.53614575 -176.2101629 0 0 1 2.157377739e-38
-11.64077143 -23.9774116 -176.2499395 0 0 1 2.166597302e-38
-11.63967966 -24.41213288 -176.2410477 0 0 1 2.157377739e-38
-11.6300181 -24.83696981 -176.1623606 0 0 1 2.148158176e-38
-11.63481222 -25.27830761 -176.2014056 0 0 1 2.166597302e-38
-11.63588748 -25.7154185 -176.2101629 0 0 1 2.212695117e-38
-11.63107721 -26.14545889 -176.1709864 0 0 1 2.194255991e-38
-11.63804893 -26.58978369 -176.2277665 0 0 1 2.157377739e-38
-11.63267255 -27.01896674 -176.1839794 0 0 1 2.148158176e-38
-11.63374058 -27.45611201 -176.1926778 0 0 1 2.175816865e-38
-11.63374058 -27.89192331 -176.1926778 0 0 1 2.148158176e-38
-11.63696637 -28.33195854 -176.2189498 0 0 1 2.148158176e-38
-11.63696637 -28.76783483 -176.2189498 0 0 1 2.148158176e-38
-11.63696637 -29.20371111 -176.2189498 0 0 1 2.120499487e-38
-11.92280728 -30.03114906 -178.5469372 0 0 1 2.074401672e-38
-11.85582224 -30.37967415 -178.0013878 0 0 1 1.843912597e-38
-12.08831768 -31.14781242 -179.8949112 0 0 1 1.85313216e-38
-11.96603725 -31.41788424 -178.899017 0 0 1 1.862351723e-38
-11.93369359 -31.81347716 -178.635599 0 0 1 1.85313216e-38
-11.89939282 -32.20488886 -178.3562417 0 0 1 1.963766916e-38
-11.86492173 -32.59466468 -178.0754972 0 0 1 1.972986479e-38
-11.76548565 -32.88489777 -177.2656553 0 0 1 1.982206042e-38
-11.76548565 -33.32336308 -177.2656553 0 0 1 1.991425605e-38
-11.67052258 -33.61452513 -176.4922432 0 0 1 1.972986479e-38
-11.62896253 -33.98577374 -176.1537637 0 0 1 1.982206042e-38
-11.61161907 -34.39388747 -176.0125126 0 0 1 1.963766916e-38
-11.59093536 -34.7959193 -175.8440572 0 0 1 2.120499487e-38
-11.58361066 -35.21891627 -175.7844024 0 0 1 2.111279924e-38
-11.5750387 -35.63955778 -175.7145893 0 0 1 2.102060361e-38
-11.56232487 -36.05292858 -175.6110435 0 0 1 2.111279924e-38
-11.53480336 -36.44072992 -175.3868988 0 0 1 2.111279924e-38
-11.45195439 -36.7326839 -174.7121481 0 0 1 2.074401672e-38
-11.45195439 -37.16483312 -174.7121481 0 0 1 2.102060361e-38
-11.45195439 -37.59698234 -174.7121481 0 0 1 2.092840798e-38
-11.45195439 -38.02913156 -174.7121481 0 0 1 2.102060361e-38
-11.45195439 -38.46128078 -174.7121481 0 0 1 2.083621235e-38
-11.35912064 -38.72511793 -173.9560779 0 0 1 2.065182109e-38
-11.35279649 -39.14380364 -173.9045719 0 0 1 2.03752342e-38
-11.33292963 -39.5371353 -173.7427692 0 0 1 2.065182109e-38
-11.33346498 -39.96788975 -173.7471293 0 0 1 2.046742983e-38
-11.33079731 -40.39260042 -173.7254029 0 0 1 2.03752342e-38
-11.33079731 -40.82230894 -173.7254029 0 0 1 2.019084294e-38
-11.32605225 -41.24284089 -173.6867574 0 0 1 2.000645168e-38
-11.3302665 -41.68068872 -173.7210797 0 0 1 1.991425605e-38
-11.33886929 -42.12737026 -173.7911439 0 0 1 2.000645168e-38
-11.33507656 -42.54967733 -173.7602545 0 0 1 1.991425605e-38
-11.33996135 -42.98931246 -173.800038 0 0 1 1.982206042e-38
-11.35393721 -43.44764147 -173.9138622 0 0 1 1.982206042e-38
-11.45195439 -44.07922067 -174.7121481 0 0 1 1.908449538e-38
-11.45195439 -44.5113699 -174.7121481 0 0 1 1.963766916e-38
-11.45195439 -44.94351912 -174.7121481 0 0 1 1.972986479e-38
-11.45195439 -45.37566834 -174.7121481 0 0 1 1.899229975e-38
-11.45195439 -45.80781756 -174.7121481 0 0 1 1.85313216e-38
-11.45195439 -46.23996679 -174.7121481 0 0 1 1.825473471e-38
-11.55145701 -46.88859968 -175.5225319 0 0 1 1.779375656e-38
-11.57930564 -47.38390348 -175.7493408 0 0 1 1.816253908e-38
-7.220911147 -38.16064283 -140.2530662 0 0 1 6.45369409e-40
-5.482129617 -34.61948067 -126.091827 0 0 1 9.219562986e-40
-4.160203895 -31.94878894 -115.325606 0 0 1 7.375650389e-40
-4.027868451 -31.93279985 -114.2478203 0 0 1 1.198543188e-39
-5.020505222 -34.49500902 -122.3321981 0 0 1 5.531737792e-40
-6.285904878 -37.72911386 -132.6380512 0 0 1 5.531737792e-40
-9.981860599 -46.69396838 -162.739195 0 0 1 7.375650389e-40
-11.6316081 -50.98489611 -176.1753101 0 0 1 1.908449538e-38
-11.63913516 -51.43855709 -176.2366131 0 0 1 1.926888664e-38
-11.63696637 -51.86927795 -176.2189498 0 0 1 1.954547353e-38
-11.64517597 -52.32500008 -176.2858116 0 0 1 1.880790849e-38
-5.220733633 -37.10118892 -123.9629276 0 0 1 1.926888664e-38
-5.223663626 -37.41501132 -123.9867905 0 0 1 1.954547353e-38
-5.225013431 -37.72503633 -123.9977838 0 0 1 1.890010412e-38
-4.475155111 -36.45021632 -117.8906778 0 0 1 1.060249743e-38
-4.252754668 -36.1773062 -116.0793716 0 0 1 1.069469306e-38
-4.048865296 -35.94279453 -114.4188259 0 0 1 1.207762751e-38
-3.857674237 -35.7328115 -112.8616997 0 0 1 1.161664936e-38
-3.665008706 -35.51129367 -111.2925648 0 0 1 1.161664936e-38
-3.444754151 -35.20976191 -109.4987354 0 0 1 1.244641003e-38
-3.282512402 -35.05245146 -108.1773824 0 0 1 1.216982314e-38
-3.084361108 -34.79311588 -106.5635697 0 0 1 1.272299692e-38
-2.963814738 -34.73372231 -105.5817983 0 0 1 1.364495322e-38
-2.853213098 -34.69631701 -104.6810202 0 0 1 1.4198127e-38
-2.818559456 -34.86100165 -104.3987889 0 0 1 1.475130078e-38
-2.727638797 -34.87013438 -103.6582996 0 0 1 1.521227893e-38
-2.635037689 -34.8709661 -102.9041241 0 0 1 1.502788767e-38
-2.60811909 -35.0506648 -102.6848897 0 0 1 1.539667019e-38
-2.526554939 -35.07626307 -102.020603 0 0 1 1.521227893e-38
-2.491868508 -35.23078423 -101.7381047 0 0 1 1.548886582e-38
-2.414044209 -35.26137725 -101.1042766 0 0 1 1.60420396e-38
-2.334214182 -35.28309718 -100.4541132 0 0 1 1.558106145e-38
-2.301748078 -35.43804354 -100.189698 0 0 1 1.567325708e-38
-2.225528852 -35.4647594 -99.56894223 0 0 1 1.521227893e-38
-2.191347185 -35.61119704 -99.2905549 0 0 1 1.521227893e-38
-2.114750059 -35.63150654 -98.66672137 0 0 1 1.567325708e-38
-2.061028754 -35.7164724 -98.22919645 0 0 1 1.539667019e-38
-2.007464939 -35.79974337 -97.79295418 0 0 1 1.558106145e-38
-1.931568998 -35.8138241 -97.17483135 0 0 1 1.521227893e-38
-1.902064374 -35.96502982 -96.93453547 0 0 1 1.567325708e-38
-1.826970228 -35.97636839 -96.32294273 0 0 1 1.493569204e-38
-1.775841344 -36.05806395 -95.90653139 0 0 1 1.521227893e-38
-1.724089853 -36.13578053 -95.48504932 0 0 1 1.539667019e-38
-1.652403148 -36.14956649 -94.90120796 0 0 1 1.51200833e-38
-1.620971667 -36.28616001 -94.64521909 0 0 1 1.576545271e-38
-1.558788031 -36.32484491 -94.13877401 0 0 1 1.51200833e-38
-1.501354957 -36.37604933 -93.67101916 0 0 1 1.539667019e-38
-1.457621418 -36.46854412 -93.31483807 0 0 1 1.585764834e-38
-1.414005586 -36.55965391 -92.95961562 0 0 1 1.558106145e-38
-1.363199618 -36.6258312 -92.54583422 0 0 1 1.622643086e-38
-1.297725729 -36.64238843 -92.01259218 0 0 1 1.576545271e-38
-1.271981127 -36.78596373 -91.80291922 0 0 1 1.594984397e-38
-1.203951335 -36.78965278 -91.24886103 0 0 1 1.558106145e-38
-1.178266673 -36.93049978 -91.03967625 0 0 1 1.613423523e-38
-1.119926581 -36.96176784 -90.56453433 0 0 1 1.724058278e-38
-1.101573765 -37.12440551 -90.41506264 0 0 1 1.668740901e-38
-1.040359765 -37.14210964 -89.91651461 0 0 1 1.585764834e-38
-1.016635308 -37.28422546 -89.72329442 0 0 1 1.825473471e-38
-0.9613582637 -37.31796457 -89.27309902 0 0 1 1.816253908e-38
-0.7545993641 -36.83070471 -87.58918292 0 0 1 1.51200833e-38
-0.7115679839 -36.89912177 -87.23872045 0 0 1 1.751716967e-38
-0.6623236915 -36.94427775 -86.83765787 0 0 1 1.779375656e-38
-0.6477321002 -37.10821717 -86.7188189 0 0 1 1.770156093e-38
-0.6361469687 -37.28210702 -86.62446557 0 0 1 1.871571286e-38
-0.6241393085 -37.45404054 -86.52667103 0 0 1 1.880790849e-38
-0.6038625637 -37.59617209 -86.36153019 0 0 1 1.834693034e-38
-0.5728315111 -37.69914047 -86.10880255 0 0 1 1.770156093e-38
-0.5660742693 -37.8878998 -86.05376923 0 0 1 1.899229975e-38
-0.5639572598 -38.09311934 -86.03652757 0 0 1 1.899229975e-38
-0.5581115456 -38.28473294 -85.98891805 0 0 1 1.862351723e-38
-0.5526675175 -38.47757565 -85.94458 0 0 1 1.843912597e-38
-0.5297832508 -38.60625638 -85.75820261 0 0 1 1.834693034e-38
-0.5128285994 -38.75587481 -85.62011805 0 0 1 1.807034345e-38
-0.501552356 -38.92585816 -85.52828042 0 0 1 1.797814782e-38
-0.4953731312 -39.11438286 -85.47795467 0 0 1 1.733277841e-38
-0.4918942929 -39.31277687 -85.44962181 0 0 1 1.871571286e-38
-0.4847694949 -39.49729598 -85.39159498 0 0 1 1.843912597e-38
-0.4829474481 -39.7016109 -85.3767556 0 0 1 1.825473471e-38
-0.4736023986 -39.87720933 -85.30064628 0 0 1 1.788595219e-38
-0.4559615232 -40.02067859 -85.15697288 0 0 1 1.797814782e-38
-0.4293862295 -40.12906021 -84.94053448 0 0 1 1.751716967e-38
-0.4232488211 -40.31542151 -84.8905493 0 0 1 1.770156093e-38
-0.4177657088 -40.50407942 -84.84589294 0 0 1 1.825473471e-38
-0.4131015736 -40.69571709 -84.80790661 0 0 1 1.816253908e-38
-0.4098012101 -40.8925241 -84.7810273 0 0 1 1.788595219e-38
-0.405202702 -41.08407253 -84.74357546 0 0 1 1.76093653e-38
-0.3821951325 -41.20237819 -84.55619384 0 0 1 1.742497404e-38
-0.3619539608 -41.33079123 -84.39134273 0 0 1 1.724058278e-38
-0.3506608913 -41.49426036 -84.29936806 0 0 1 1.705619152e-38
-0.3474753492 -41.6899397 -84.2734239 0 0 1 1.696399589e-38
-0.3447970221 -41.88754447 -84.25161067 0 0 1 1.788595219e-38
-0.3384348127 -42.07005057 -84.19979464 0 0 1 1.751716967e-38
-0.3342910211 -42.26137239 -84.16604616 0 0 1 1.714838715e-38
-0.3097752596 -42.3688071 -83.96638131 0 0 1 1.705619152e-38
-0.3098837036 -42.57694518 -83.96726451 0 0 1 1.705619152e-38
-0.2825134242 -42.67105459 -83.74435148 0 0 1 1.687180026e-38
-0.2769766533 -42.85510724 -83.6992581 0 0 1 1.650301775e-38
-0.2713172668 -43.03842303 -83.65316609 0 0 1 1.733277841e-38
-0.2689214516 -43.23525142 -83.63365374 0 0 1 1.714838715e-38
-0.2619254662 -43.41252252 -83.57667601 0 0 1 1.677960464e-38
-0.2588523675 -43.60618633 -83.55164763 0 0 1 1.613423523e-38
-0.236521502 -43.71748148 -83.36977733 0 0 1 1.613423523e-38
-0.2199202449 -43.852462 -83.23457094 0 0 1 1.622643086e-38
-0.2097870718 -44.01465773 -83.15204287 0 0 1 1.622643086e-38
-0.20668532 -44.20689948 -83.12678113 0 0 1 1.60420396e-38
-0.2013690744 -44.38938031 -83.08348378 0 0 1 1.687180026e-38
-0.1966062895 -44.57406637 -83.04469401 0 0 1 1.659521338e-38
-0.1907509369 -44.75376241 -82.99700599 0 0 1 1.650301775e-38
-0.1671053029 -44.85473625 -82.80442776 0 0 1 1.631862649e-38
-0.1676233882 -45.0618485 -82.80864722 0 0 1 1.613423523e-38
-0.149905393 -45.18779384 -82.66434573 0 0 1 1.576545271e-38
-0.1408384457 -45.35171443 -82.59050137 0 0 1 1.530447456e-38
-0.1329173548 -45.52041727 -82.52598926 0 0 1 1.622643086e-38
-0.1301027517 -45.71184387 -82.50306616 0 0 1 1.613423523e-38
-0.1268863747 -45.90133598 -82.47687087 0 0 1 1.594984397e-38
-0.1221802742 -46.08391615 -82.43854276 0 0 1 1.567325708e-38
-0.09892297237 -46.18147372 -82.24912724 0 0 1 1.567325708e-38
-0.0983575895 -46.3823195 -82.24452256 0 0 1 1.539667019e-38
-0.07955630789 -46.49901664 -82.09139841 0 0 1 1.521227893e-38
-0.07237355769 -46.66878894 -82.03289961 0 0 1 1.502788767e-38
-0.06623664934 -46.84313868 -81.9829185 0 0 1 1.631862649e-38
-0.06389285204 -47.03496877 -81.9638298 0 0 1 1.613423523e-38
-0.05895473762 -47.21452728 -81.92361209 0 0 1 1.60420396e-38
-0.05387233599 -47.39320667 -81.88221925 0 0 1 1.576545271e-38
-0.04849200643 -47.57027088 -81.83839998 0 0 1 1.567325708e-38
-0.02903797426 -47.68020891 -81.6799596 0 0 1 1.521227893e-38
-0.02923671433 -47.88319255 -81.68157821 0 0 1 1.484349641e-38
-0.008292895454 -47.98481608 -81.51100449 0 0 1 1.447471389e-38
-0.001070986121 -48.15166198 -81.45218676 0 0 1 1.410593137e-38
0.001128443034 -48.34249958 -81.43427385 0 0 1 1.576545271e-38
0.007587829234 -48.51256673 -81.38166637 0 0 1 1.548886582e-38
0.01170983044 -48.69376857 -81.34809536 0 0 1 1.521227893e-38
0.01095516712 -48.89867675 -81.3542416 0 0 1 1.484349641e-38
0.01846026427 -49.0630155 -81.29311749 0 0 1 1.502788767e-38
0.03821428135 -49.16659707 -81.13223393 0 0 1 1.484349641e-38
0.03922221975 -49.36228206 -81.12402493 0 0 1 1.410593137e-38
0.05814111197 -49.46880492 -80.96994292 0 0 1 1.392154011e-38
0.0615270943 -49.65216727 -80.94236631 0 0 1 1.401373574e-38
0.068882332 -49.81548301 -80.88246271 0 0 1 1.51200833e-38
0.07289163494 -49.99535335 -80.84980955 0 0 1 1.447471389e-38
0.0759494369 -50.17987333 -80.82490575 0 0 1 1.4198127e-38
0.08094713955 -50.35442213 -80.78420273 0 0 1 1.401373574e-38
0.0855679118 -50.53069066 -80.74656956 0 0 1 1.410593137e-38
0.10348323 -50.63874716 -80.60066101 0 0 1 1.4198127e-38
0.1044516525 -50.83313755 -80.59277384 0 0 1 1.401373574e-38
0.1042233258 -51.03366069 -80.59463341 0 0 1 1.373714885e-38
0.1254884017 -51.1229161 -80.42144326 0 0 1 1.364495322e-38
0.1280417406 -51.30856722 -80.40064799 0 0 1 1.355275759e-38
0.1338381414 -51.47719462 -80.35344009 0 0 1 1.429032263e-38
0.1400919223 -51.64319287 -80.30250713 0 0 1 1.392154011e-38
0.1399366575 -51.84263689 -80.30377166 0 0 1 1.392154011e-38
0.1417655275 -52.03161493 -80.28887671 0 0 1 1.392154011e-38
0.1487352678 -52.19328229 -80.23211273 0 0 1 1.382934448e-38
0.1691075012 -52.2833907 -80.06619421 0 0 1 1.346056196e-38
0.1693949341 -52.47989941 -80.06385325 0 0 1 1.336836633e-38
0.1707160289 -52.67085759 -80.0530938 0 0 1 1.309177944e-38
0.1692361398 -52.87682823 -80.06514653 0 0 1 1.299958381e-38
0.1700937953 -53.07023842 -80.05816149 0 0 1 1.290738818e-38
0.1896208083 -53.16244482 -79.89912673 0 0 1 1.309177944e-38
0.1977566156 -53.31582289 -79.83286589 0 0 1 1.309177944e-38
0.1977559881 -53.51329233 -79.832871 0 0 1 1.336836633e-38
0.199966926 -53.69864366 -79.81486436 0 0 1 1.318397507e-38
0.2057187198 -53.86443269 -79.76801976 0 0 1 1.290738818e-38
0.208481018 -54.04649118 -79.74552265 0 0 1 1.263080129e-38
0.2105777448 -54.23212556 -79.72844618 0 0 1 1.272299692e-38
0.2310640778 -54.31542897 -79.56159838 0 0 1 1.290738818e-38
0.2323391886 -54.50510868 -79.55121344 0 0 1 1.253860566e-38
0.2321565315 -54.70290096 -79.55270106 0 0 1 1.244641003e-38
0.2328855668 -54.89557648 -79.54676355 0 0 1 1.23542144e-38
0.2339078251 -55.08656867 -79.53843792 0 0 1 1.216982314e-38
0.2359165878 -55.27193533 -79.52207786 0 0 1 1.189323625e-38
0.2352262534 -55.47255432 -79.52770018 0 0 1 1.161664936e-38
0.236327627 -55.66298655 -79.51873022 0 0 1 1.134006247e-38
0.2383769079 -55.84795125 -79.50204016 0 0 1 1.124786684e-38
0.2382969733 -56.0450579 -79.50269118 0 0 1 1.124786684e-38
0.2366908987 -56.25096056 -79.5157716 0 0 1 1.134006247e-38
0.2382282882 -56.43875366 -79.50325057 0 0 1 1.124786684e-38
0.241024138 -56.61918353 -79.4804802 0 0 1 1.078688869e-38
0.2395711723 -56.82423694 -79.49231366 0 0 1 1.087908432e-38
0.2380352129 -57.02983374 -79.50482304 0 0 1 1.069469306e-38
0.2608196854 -57.09292144 -79.31925841 0 0 1 1.060249743e-38
0.2620779446 -57.28171555 -79.30901071 0 0 1 1.198543188e-38
0.2635316559 -57.46930531 -79.29717118 0 0 1 1.152445373e-38
0.2625494303 -57.67126363 -79.30517076 0 0 1 1.097127995e-38
0.2659240522 -57.84736979 -79.27768668 0 0 1 1.041810617e-38
0.2649055148 -58.04953602 -79.285982 0 0 1 1.014151928e-38
0.2637179328 -58.25275469 -79.29565408 0 0 1 1.004932366e-38
0.2417964479 -58.58049107 -79.47419024 0 0 1 9.588345506e-39
0.2364834986 -58.80907165 -79.51746074 0 0 1 9.311758616e-39
0.2387767315 -58.99189837 -79.49878386 0 0 1 8.942976097e-39
0.2402611674 -59.17953695 -79.4866941 0 0 1 8.666389207e-39
0.2413343689 -59.36961758 -79.47795357 0 0 1 8.481997947e-39
0.2401483816 -59.5734449 -79.48761267 0 0 1 8.850780467e-39
0.2381331272 -59.78239849 -79.5040256 0 0 1 8.850780467e-39
0.236855843 -59.98689904 -79.51442824 0 0 1 8.297606688e-39
0.2317121121 -60.21528522 -79.55632057 0 0 1 8.389802318e-39
0.2010157467 -60.60190916 -79.8063224 0 0 1 8.205411058e-39
0.2018962054 -60.79384657 -79.79915164 0 0 1 8.113215428e-39
0.1998077191 -61.0042296 -79.816161 0 0 1 8.021019798e-39
0.1974717493 -61.21624229 -79.83518594 0 0 1 7.836628538e-39
0.16779691 -61.59962956 -80.07686812 0 0 1 6.73028098e-39
0.1974717493 -61.61118579 -79.83518594 0 0 1 6.91467224e-39
0.1325201323 -62.21820211 -80.36417441 0 0 1 7.00686787e-39
-0.4562194421 -67.19427044 -85.15907346 0 0 1 7.283454759e-39
-9.021365076 132.1425905 -166.9483786 0 0 1 8.113215428e-39
-9.038156662 131.8459325 -167.0957565 0 0 1 8.113215428e-39
-9.158178647 132.2612112 -168.1491759 0 0 1 8.574193577e-39
-9.161466883 131.8679249 -168.1780364 0 0 1 8.666389207e-39
-9.177010728 131.558572 -168.314463 0 0 1 8.758584837e-39
-9.297457001 131.9659209 -169.3716064 0 0 1 8.205411058e-39
-9.307906472 131.6182134 -169.4633202 0 0 1 7.836628538e-39
-9.437778412 132.0815392 -170.6031916 0 0 1 8.758584837e-39
-9.440154486 131.6756475 -170.6240461 0 0 1 8.758584837e-39
-9.679826019 132.8717946 -172.7276162 0 0 1 8.481997947e-39
-9.704359958 132.6096666 -172.9429478 0 0 1 8.758584837e-39
-9.592387634 131.4307545 -171.9601793 0 0 1 8.481997947e-39
-9.596803258 131.0349375 -171.9989347 0 0 1 8.205411058e-39
-9.836967102 132.2101523 -174.1068258 0 0 1 8.758584837e-39
-9.856385818 131.9085013 -174.2772616 0 0 1 8.574193577e-39
-10.00440607 132.4575317 -175.5764187 0 0 1 9.127367356e-39
-9.881554277 131.2124588 -174.4981624 0 0 1 8.389802318e-39
-10.1141061 132.3105644 -176.5392436 0 0 1 9.311758616e-39
-10.13039566 131.9806949 -176.6822151 0 0 1 9.680541136e-39
-10.15450994 131.7012495 -176.8938635 0 0 1 9.219562986e-39
-10.17378485 131.3892388 -177.0630372 0 0 1 9.035171727e-39
-10.40154029 132.4296717 -179.062021 0 0 1 9.496149876e-39
-10.42709569 132.1520926 -179.2863179 0 0 1 9.311758616e-39
-10.46187487 131.9328763 -179.5915708 0 0 1 9.496149876e-39
-10.46328855 131.4977423 -179.6039786 0 0 1 9.127367356e-39
-10.46794469 131.0833125 -179.644845 0 0 1 9.127367356e-39
-10.70561638 132.1559286 -181.7308626 0 0 1 9.772736766e-39
-10.7538373 132.0131473 -182.1540922 0 0 1 9.680541136e-39
-10.75385647 131.562712 -182.1542605 0 0 1 9.403954246e-39
-10.90043784 132.0381802 -183.4407886 0 0 1 1.078688869e-38
-11.01120505 132.2818061 -184.4129799 0 0 1 1.014151928e-38
-11.0517466 132.0800223 -184.7688086 0 0 1 9.588345506e-39
-11.09430401 131.889082 -185.1423302 0 0 1 9.864932395e-39
-11.07759169 131.3270053 -184.995648 0 0 1 9.864932395e-39
-11.21501125 131.7226491 -186.201764 0 0 1 1.05103018e-38
-11.36718228 132.2035971 -187.537352 0 0 1 1.060249743e-38
-11.39822218 131.9311019 -187.8097857 0 0 1 1.014151928e-38
-11.3961614 131.4538947 -187.7916985 0 0 1 9.680541136e-39
-11.53439103 131.8356486 -189.0049244 0 0 1 1.078688869e-38
-11.70055226 132.3817943 -190.4633028 0 0 1 1.078688869e-38
-11.72776704 132.0761146 -190.7021638 0 0 1 1.05103018e-38
-11.73210296 131.6306768 -190.7402197 0 0 1 1.023371491e-38
-11.75352302 131.2881579 -190.9282212 0 0 1 1.014151928e-38
-11.87980391 131.5752947 -192.0365743 0 0 1 1.097127995e-38
-11.9446898 131.4890795 -192.6060704 0 0 1 1.097127995e-38
-12.07649544 131.7995667 -193.7629137 0 0 1 1.05103018e-38
-12.10884158 131.5127041 -194.0468122 0 0 1 1.041810617e-38
-12.37522191 132.6114901 -196.3848023 0 0 1 1.106347558e-38
-12.40814579 132.3201493 -196.6737715 0 0 1 1.180104062e-38
-12.43525796 131.9931871 -196.911732 0 0 1 1.115567121e-38
-12.456133 131.6284881 -197.0949498 0 0 1 1.087908432e-38
-12.58837187 131.9132334 -198.2555954 0 0 1 1.216982314e-38
-12.62463166 131.6338151 -198.5738436 0 0 1 1.152445373e-38
-12.77363098 132.0063119 -199.8815938 0 0 1 1.124786684e-38
-12.81204591 131.7337426 -200.2187573 0 0 1 1.134006247e-38
-12.81859299 131.2761686 -200.2762203 0 0 1 1.05103018e-38
-13.00236196 131.8340266 -201.8891398 0 0 1 1.207762751e-38
-13.15977764 132.2334384 -203.2707595 0 0 1 1.207762751e-38
-13.18509991 131.8746803 -203.4930102 0 0 1 1.152445373e-38
-13.21960285 131.5668423 -203.7958387 0 0 1 1.087908432e-38
-13.55129816 132.9350048 -206.7070911 0 0 1 8.758584837e-39
-9.275674802 107.9643697 -169.1804265 0 0 1 6.54588972e-39
-9.146715238 106.8263915 -168.0485629 0 0 1 6.73028098e-39
-8.90111211 105.0457486 -165.8929319 0 0 1 8.297606688e-39
-8.770002766 103.9096002 -164.7422 0 0 1 7.928824168e-39
-8.519059941 102.1183552 -162.5397031 0 0 1 8.297606688e-39
-8.540424058 101.8336572 -162.7272135 0 0 1 9.127367356e-39
-8.502043591 101.2211804 -162.3903525 0 0 1 9.403954246e-39
-8.300247672 99.71990265 -160.6192124 0 0 1 9.311758616e-39
-8.291100003 99.27296421 -160.5389244 0 0 1 9.772736766e-39
-8.280646683 98.81936503 -160.4471767 0 0 1 1.023371491e-38
-8.1750271 97.85384717 -159.5201656 0 0 1 1.087908432e-38
-8.145318842 97.29997172 -159.2594195 0 0 1 1.134006247e-38
-8.057406481 96.43654405 -158.4878226 0 0 1 1.106347558e-38
-8.048976996 95.99969046 -158.413838 0 0 1 1.152445373e-38
-8.042769333 95.57497216 -158.359354 0 0 1 1.170884499e-38
-8.027219992 95.10124208 -158.2228792 0 0 1 1.207762751e-38
-7.918838631 94.14047414 -157.2716282 0 0 1 1.263080129e-38
-7.900589625 93.65598502 -157.1114588 0 0 1 1.180104062e-38
-7.882728171 93.17430751 -156.9546908 0 0 1 1.152445373e-38
-7.812726096 92.42286941 -156.3402905 0 0 1 1.170884499e-38
-7.814047967 92.04299279 -156.3518924 0 0 1 1.23542144e-38
-7.72300511 91.18782679 -155.5528195 0 0 1 1.253860566e-38
-7.70523341 90.71201548 -155.3968393 0 0 1 1.253860566e-38
-7.706855835 90.33591973 -155.4110791 0 0 1 1.299958381e-38
-7.692362562 89.87788518 -155.2838733 0 0 1 1.309177944e-38
-7.664841859 89.35458288 -155.0423272 0 0 1 1.281519255e-38
-7.650423433 88.89846669 -154.9157783 0 0 1 1.309177944e-38
-7.580111229 88.16267428 -154.298656 0 0 1 1.318397507e-38
-7.577549461 87.76822625 -154.2761716 0 0 1 1.318397507e-38
-7.571201288 87.35506539 -154.2204544 0 0 1 1.32761707e-38
-7.508308617 86.66229726 -153.6684525 0 0 1 1.364495322e-38
-7.494724771 86.21525729 -153.5492287 0 0 1 1.373714885e-38
-7.496624634 85.84477582 -153.5659035 0 0 1 1.373714885e-38
-7.483480365 85.40072649 -153.4505378 0 0 1 1.410593137e-38
-7.470667209 84.95885806 -153.3380781 0 0 1 1.438251826e-38
-7.461613182 84.53574478 -153.258612 0 0 1 1.456690952e-38
-7.448048746 84.0912866 -153.1395584 0 0 1 1.373714885e-38
-7.437014721 83.65955782 -153.042714 0 0 1 1.382934448e-38
-7.429184167 83.24360824 -152.9739862 0 0 1 1.401373574e-38
-7.415592294 82.80060707 -152.8546918 0 0 1 1.401373574e-38
-7.357638783 82.14824636 -152.3460404 0 0 1 1.429032263e-38
-7.354364618 81.75599503 -152.3173034 0 0 1 1.447471389e-38
-7.354821908 81.38138365 -152.321317 0 0 1 1.456690952e-38
-7.34505375 80.95902455 -152.235583 0 0 1 1.456690952e-38
-7.355563789 80.63129898 -152.3278284 0 0 1 1.456690952e-38
-7.292498707 79.96289559 -151.7743133 0 0 1 1.51200833e-38
-7.290633442 79.57889818 -151.7579421 0 0 1 1.567325708e-38
-7.283675494 79.17165362 -151.6968729 0 0 1 1.530447456e-38
-7.280004075 78.77969448 -151.6646493 0 0 1 1.521227893e-38
-7.268803171 78.35373122 -151.5663402 0 0 1 1.530447456e-38
-7.268448897 77.97723323 -151.5632308 0 0 1 1.539667019e-38
-7.258844341 77.55918096 -151.4789327 0 0 1 1.558106145e-38
-7.264654136 77.21048133 -151.5299246 0 0 1 1.594984397e-38
-7.259173359 76.81128118 -151.4818204 0 0 1 1.594984397e-38
-7.248063951 76.38739119 -151.3843144 0 0 1 1.613423523e-38
-7.244633619 75.99782558 -151.3542068 0 0 1 1.613423523e-38
-7.241076652 75.60785357 -151.3229877 0 0 1 1.631862649e-38
-7.244187811 75.24713319 -151.350294 0 0 1 1.650301775e-38
-7.237249365 74.84264321 -151.289396 0 0 1 1.631862649e-38
-7.23822965 74.47266503 -151.2979999 0 0 1 1.650301775e-38
-7.236445302 74.09076052 -151.2823389 0 0 1 1.659521338e-38
-7.235068614 73.71067696 -151.2702558 0 0 1 1.668740901e-38
-7.236617011 73.34309963 -151.2838459 0 0 1 1.696399589e-38
-7.234130478 72.95837374 -151.2620219 0 0 1 1.696399589e-38
-7.230424733 72.56862091 -151.229497 0 0 1 1.641082212e-38
-7.229519898 72.19076465 -151.2215554 0 0 1 1.668740901e-38
-7.221608917 71.78374439 -151.1521216 0 0 1 1.677960464e-38
-7.224174284 71.42050809 -151.1746375 0 0 1 1.687180026e-38
-7.225768108 71.05315296 -151.1886263 0 0 1 1.687180026e-38
-7.224460751 70.67382477 -151.1771518 0 0 1 1.687180026e-38
-7.223221443 70.29483108 -151.1662745 0 0 1 1.687180026e-38
-7.223615443 69.92252192 -151.1697326 0 0 1 1.705619152e-38
-7.221857003 69.54150414 -151.154299 0 0 1 1.714838715e-38
-7.219633025 69.158693 -151.1347794 0 0 1 1.714838715e-38
-7.220461074 68.78816991 -151.1420471 0 0 1 1.724058278e-38
-7.227217455 68.44116326 -151.2013471 0 0 1 1.742497404e-38
-7.227966685 68.07012814 -151.207923 0 0 1 1.733277841e-38
-7.229036977 67.70032209 -151.2173168 0 0 1 1.742497404e-38
-7.227655965 67.32089055 -151.2051958 0 0 1 1.733277841e-38
-7.225890041 66.9400232 -151.1896965 0 0 1 1.742497404e-38
-7.231943554 66.5894492 -151.2428275 0 0 1 1.76093653e-38
-7.231950553 66.21537806 -151.2428889 0 0 1 1.770156093e-38
-7.23874671 65.86724721 -151.302538 0 0 1 1.834693034e-38
-7.238539669 65.4922149 -151.3007209 0 0 1 1.825473471e-38
-7.233710915 65.09973322 -151.2583394 0 0 1 1.843912597e-38
-7.239972535 64.74911394 -151.313297 0 0 1 1.843912597e-38
-7.240350587 64.37625327 -151.3166151 0 0 1 1.843912597e-38
-7.238922878 63.99667259 -151.3040843 0 0 1 1.862351723e-38
-7.240681614 63.62891388 -151.3195205 0 0 1 1.880790849e-38
-7.24586459 63.27364206 -151.3650109 0 0 1 1.908449538e-38
-7.246222983 62.90054894 -151.3681564 0 0 1 1.871571286e-38
-7.250233013 62.54067927 -151.403352 0 0 1 1.871571286e-38
-7.247662515 62.15692065 -151.3807911 0 0 1 1.899229975e-38
-7.24586459 61.77604106 -151.3650109 0 0 1 1.890010412e-38
-7.251671089 61.42231409 -151.4159739 0 0 1 1.908449538e-38
-7.256505015 61.0648934 -151.4584007 0 0 1 1.963766916e-38
-7.265715321 60.72265434 -151.5392385 0 0 1 1.963766916e-38
-7.268840333 60.35874581 -151.5666664 0 0 1 1.94532779e-38
-7.278915813 60.01884425 -151.6550977 0 0 1 1.917669101e-38
-7.277781328 59.63981044 -151.6451405 0 0 1 1.94532779e-38
-7.286618073 59.29502831 -151.7226996 0 0 1 1.963766916e-38
-7.29138249 58.93598237 -151.7645164 0 0 1 1.972986479e-38
-7.341137254 58.72909803 -152.2012083 0 0 1 1.982206042e-38
-7.396001412 58.5372464 -152.6827449 0 0 1 1.954547353e-38
-7.410348045 58.20755146 -152.8086636 0 0 1 1.954547353e-38
-7.423128006 57.87202981 -152.9208319 0 0 1 1.954547353e-38
-7.430784009 57.51904494 -152.9880278 0 0 1 1.94532779e-38
-7.436297945 57.15870565 -153.036423 0 0 1 1.963766916e-38
-7.443576195 56.80387232 -153.1003034 0 0 1 1.972986479e-38
-7.445660156 56.43192088 -153.1185941 0 0 1 1.963766916e-38
-7.454171619 56.08053062 -153.1932982 0 0 1 2.009864731e-38
-7.455887649 55.7070845 -153.2083596 0 0 1 2.028303857e-38
-7.461257524 55.34514508 -153.2554904 0 0 1 2.03752342e-38
-7.464180631 54.97527035 -153.2811462 0 0 1 2.03752342e-38
-7.467515846 54.60655703 -153.310419 0 0 1 2.046742983e-38
-7.467142791 54.22618669 -153.3071447 0 0 1 2.03752342e-38
-7.470522884 53.8574026 -153.3368114 0 0 1 2.019084294e-38
-7.479398047 53.50529242 -153.4147077 0 0 1 2.000645168e-38
-7.491514632 53.16264868 -153.5210536 0 0 1 2.046742983e-38
-7.502111828 52.81489389 -153.614064 0 0 1 2.046742983e-38
-7.561515884 52.61290043 -154.1354467 0 0 1 2.019084294e-38
-7.631658082 52.44026521 -154.7510769 0 0 1 2.028303857e-38
-7.651911245 52.11728703 -154.9288366 0 0 1 2.019084294e-38
-7.655385901 51.74425518 -154.9593333 0 0 1 2.019084294e-38
-7.663673877 51.3850748 -155.0320759 0 0 1 2.019084294e-38
-7.666617514 51.01010347 -155.0579119 0 0 1 2.009864731e-38
-7.674173993 50.64822318 -155.1242343 0 0 1 2.055962546e-38
-7.679202742 50.27882605 -155.168371 0 0 1 2.046742983e-38
-7.683235055 49.90639838 -155.2037622 0 0 1 2.055962546e-38
-7.684719479 49.52666019 -155.2167908 0 0 1 2.065182109e-38
-7.690756371 49.15950806 -155.2697759 0 0 1 2.03752342e-38
-7.704541569 48.81345678 -155.3907671 0 0 1 2.046742983e-38
-7.718321745 48.46679321 -155.5117141 0 0 1 2.083621235e-38
-7.787567947 48.27004926 -156.1194802 0 0 1 2.083621235e-38
-7.861686854 48.08341594 -156.7700135 0 0 1 2.074401672e-38
-7.879111745 47.74217574 -156.9229498 0 0 1 2.083621235e-38
-7.889706735 47.38208951 -157.0159409 0 0 1 2.092840798e-38
-7.89276028 47.00173296 -157.0427415 0 0 1 2.092840798e-38
-7.901696445 46.63656892 -157.1211732 0 0 1 2.092840798e-38
-7.907570131 46.26310515 -157.1727259 0 0 1 2.065182109e-38
-7.914357489 45.89172693 -157.2322977 0 0 1 2.055962546e-38
-7.916664973 45.50867504 -157.2525503 0 0 1 2.074401672e-38
-7.926531904 45.14456 -157.3391512 0 0 1 2.074401672e-38
-7.941497371 44.79274554 -157.4705014 0 0 1 2.065182109e-38
-8.019515386 44.59632946 -158.1552568 0 0 1 2.074401672e-38
-8.019515386 44.20513359 -158.1552568 0 0 1 2.102060361e-38
-8.117955237 44.05329141 -159.0192523 0 0 1 2.092840798e-38
-8.126697446 43.68102509 -159.0959816 0 0 1 2.065182109e-38
-8.143068523 43.32659733 -159.2396687 0 0 1 2.092840798e-38
-8.140023911 42.92551458 -159.2129465 0 0 1 2.120499487e-38
-8.149252747 42.55334075 -159.293947 0 0 1 2.083621235e-38
-8.15561101 42.1740981 -159.3497527 0 0 1 2.102060361e-38
-8.163802059 41.798797 -159.4216446 0 0 1 2.12971905e-38
-8.198120011 41.48269666 -159.7228494 0 0 1 2.12971905e-38
-8.347203092 41.42422238 -161.0313348 0 0 1 2.111279924e-38
-8.361957511 41.05890469 -161.1608327 0 0 1 2.102060361e-38
-8.372400792 40.6833999 -161.2524922 0 0 1 2.092840798e-38
-8.379004929 40.29902371 -161.310456 0 0 1 2.111279924e-38
-8.384826794 39.91266249 -161.3615538 0 0 1 2.138938613e-38
-8.393627723 39.53245123 -161.4387986 0 0 1 2.138938613e-38
-8.408311345 39.1643735 -161.5676751 0 0 1 2.111279924e-38
-8.4342014 38.81925704 -161.7949092 0 0 1 2.065182109e-38
-8.590039558 38.74384369 -163.1626832 0 0 1 2.092840798e-38
-8.607964791 38.37723114 -163.3200109 0 0 1 2.092840798e-38
-8.622772005 38.00347736 -163.4499722 0 0 1 2.074401672e-38
-8.627134887 37.60799366 -163.4882647 0 0 1 2.083621235e-38
-8.635970101 37.22125303 -163.5658104 0 0 1 2.092840798e-38
-8.64768718 36.83982211 -163.6686498 0 0 1 2.120499487e-38
-8.67857651 36.49534236 -163.939762 0 0 1 2.092840798e-38
-8.840737154 36.40315747 -165.3630277 0 0 1 2.111279924e-38
-8.867120894 36.04453784 -165.5945948 0 0 1 2.120499487e-38
-8.880435783 35.66008907 -165.7114581 0 0 1 2.092840798e-38
-8.884504817 35.25779997 -165.7471716 0 0 1 2.120499487e-38
-8.897972637 34.8726779 -165.8653771 0 0 1 2.102060361e-38
-8.906760619 34.4784369 -165.9425082 0 0 1 2.092840798e-38
-9.082263481 34.38421688 -167.4828771 0 0 1 2.074401672e-38
-9.120279692 34.03762507 -167.8165411 0 0 1 2.065182109e-38
-9.137765501 33.65328044 -167.9700121 0 0 1 2.092840798e-38
-9.150400899 33.25975256 -168.0809115 0 0 1 2.028303857e-38
-9.153849924 32.84992092 -168.1111832 0 0 1 2.074401672e-38
-9.171799752 32.46449441 -168.2687269 0 0 1 2.065182109e-38
-9.346807907 32.34083299 -169.8047537 0 0 1 2.074401672e-38
-9.392234829 31.99577328 -170.2034607 0 0 1 2.03752342e-38
-9.40826553 31.60087773 -170.3441603 0 0 1 2.046742983e-38
-9.419961884 31.19832298 -170.4468179 0 0 1 2.083621235e-38
-9.441049184 30.81014314 -170.6318988 0 0 1 2.083621235e-38
-9.618213581 30.66501007 -172.1868507 0 0 1 2.046742983e-38
-9.672917744 30.32342702 -172.666983 0 0 1 2.028303857e-38
-9.688276057 29.91967606 -172.8017812 0 0 1 2.019084294e-38
-9.699961465 29.50975639 -172.9043427 0 0 1 1.926888664e-38
-9.727923619 29.12335791 -173.1497634 0 0 1 1.963766916e-38
-9.909171322 28.95870544 -174.7405541 0 0 1 1.963766916e-38
-9.956077132 28.59369407 -175.1522411 0 0 1 1.972986479e-38
-9.97511166 28.18731632 -175.319305 0 0 1 1.954547353e-38
-9.99989383 27.78809795 -175.5368153 0 0 1 1.954547353e-38
-10.11822665 27.51575304 -176.5754091 0 0 1 1.963766916e-38
-10.24601692 27.25099989 -177.69701 0 0 1 1.963766916e-38
-10.27234855 26.84633817 -177.9281196 0 0 1 1.917669101e-38
-10.29514319 26.43592597 -178.1281856 0 0 1 1.880790849e-38
-10.50685786 26.266505 -179.9863815 0 0 1 1.880790849e-38
-10.55112067 25.87704373 -180.3748712 0 0 1 1.85313216e-38
-10.58517919 25.47303337 -180.673799 0 0 1 1.825473471e-38
-10.65120166 25.10640392 -181.2532708 0 0 1 1.788595219e-38
-10.85664948 24.90338535 -183.0564631 0 0 1 1.76093653e-38
-10.90015939 24.50160391 -183.4383447 0 0 1 1.714838715e-38
-10.95309405 24.1087775 -183.9029462 0 0 1 1.696399589e-38
-11.17645058 23.90604153 -185.8633214 0 0 1 1.659521338e-38
-11.24242857 23.51936 -186.4424028 0 0 1 1.668740901e-38
-11.49138399 23.32843179 -188.6274564 0 0 1 1.631862649e-38
-11.56201186 22.93699487 -189.2473493 0 0 1 1.594984397e-38
-11.82253816 22.74037677 -191.5339593 0 0 1 1.558106145e-38
-11.92226261 22.36837272 -192.4092295 0 0 1 1.502788767e-38
-12.18466662 22.15449706 -194.71232 0 0 1 1.401373574e-38
-12.5560304 22.03567416 -197.971738 0 0 1 1.226201877e-38
-30.59185285 38.77418776 -356.2701201 0 0 1 2.249573369e-38
-30.42009654 37.73261974 -354.7626342 0 0 1 2.295671184e-38
-30.42009654 36.85511696 -354.7626342 0 0 1 2.31411031e-38
-30.42009654 35.97761417 -354.7626342 0 0 1 2.323329873e-38
