# .PCD v0.7 - Point Cloud Data file format
VERSION 0.7
FIELDS x y z normal_x normal_y normal_z rgb
SIZE 4 4 4 4 4 4 4
TYPE F F F F F F F
COUNT 1 1 1 1 1 1 1
WIDTH 810
HEIGHT 1
VIEWPOINT 0 0 0 1 0 0 0
POINTS 810
DATA ascii
31.40851229 47.01625454 -72.27392624 0 0 1 1.51200833e-38
31.42897301 46.88224943 -72.34300049 0 0 1 1.558106145e-38
31.43712566 46.72107782 -72.37052338 0 0 1 1.539667019e-38
31.48951974 46.65582247 -72.54740283 0 0 1 1.548886582e-38
31.48962167 46.47659745 -72.54774694 0 0 1 1.567325708e-38
31.54141292 46.40872997 -72.72259127 0 0 1 1.548886582e-38
31.55822428 46.2649291 -72.77934545 0 0 1 1.585764834e-38
31.56772564 46.10522095 -72.81142152 0 0 1 1.576545271e-38
31.58435293 45.96052767 -72.86755432 0 0 1 1.576545271e-38
31.65496993 45.93006854 -73.10595328 0 0 1 1.548886582e-38
31.67277081 45.78684843 -73.16604807 0 0 1 1.539667019e-38
31.68481722 45.63122192 -73.20671606 0 0 1 1.594984397e-38
31.70315636 45.48858344 -73.26862795 0 0 1 1.60420396e-38
31.74903191 45.4031235 -73.42350122 0 0 1 1.576545271e-38
31.79227629 45.31142655 -73.56949179 0 0 1 1.594984397e-38
31.80606917 45.15801653 -73.61605579 0 0 1 1.576545271e-38
31.82407587 45.01306733 -73.6768454 0 0 1 1.594984397e-38
31.83945197 44.86241364 -73.72875425 0 0 1 1.585764834e-38
31.88265834 44.76843946 -73.8746165 0 0 1 1.585764834e-38
31.93092596 44.68405596 -74.03756525 0 0 1 1.594984397e-38
31.94890547 44.53740754 -74.09826307 0 0 1 1.613423523e-38
31.96152002 44.37961738 -74.14084908 0 0 1 1.60420396e-38
32.01362286 44.30108433 -74.31674529 0 0 1 1.576545271e-38
32.05593783 44.20206537 -74.45959823 0 0 1 1.576545271e-38
32.07616653 44.05826131 -74.52788919 0 0 1 1.585764834e-38
32.08967081 43.90075538 -74.57347889 0 0 1 1.641082212e-38
32.10809173 43.75275411 -74.63566685 0 0 1 1.613423523e-38
32.15196032 43.65459462 -74.78376473 0 0 1 1.631862649e-38
32.20078907 43.56543601 -74.94860784 0 0 1 1.631862649e-38
32.22029384 43.41816324 -75.01445485 0 0 1 1.677960464e-38
32.23439107 43.26004362 -75.06204629 0 0 1 1.677960464e-38
32.25061568 43.10580991 -75.11681966 0 0 1 1.696399589e-38
32.33204169 43.07707456 -75.39170927 0 0 1 1.687180026e-38
32.35576307 42.93615265 -75.47179131 0 0 1 1.677960464e-38
32.36653127 42.77006504 -75.50814412 0 0 1 1.696399589e-38
32.39326043 42.63418545 -75.59838027 0 0 1 1.677960464e-38
32.46600884 42.5850905 -75.84397476 0 0 1 1.687180026e-38
32.49375377 42.44985078 -75.9376401 0 0 1 1.705619152e-38
32.50827107 42.28929516 -75.98664966 0 0 1 1.687180026e-38
32.56938662 42.21565836 -76.19297232 0 0 1 1.687180026e-38
32.61562424 42.11329618 -76.34906789 0 0 1 1.696399589e-38
32.63882347 41.96745364 -76.42738718 0 0 1 1.705619152e-38
32.65646632 41.81096975 -76.48694846 0 0 1 1.724058278e-38
32.70998021 41.72008923 -76.66760832 0 0 1 1.724058278e-38
32.75816562 41.61857062 -76.83027953 0 0 1 1.687180026e-38
32.78082373 41.46977789 -76.90677205 0 0 1 1.705619152e-38
32.80149303 41.31700294 -76.97655041 0 0 1 1.696399589e-38
32.85477698 41.22270921 -77.156434 0 0 1 1.705619152e-38
32.90847718 41.12827291 -77.33772285 0 0 1 1.705619152e-38
32.92854467 40.97283882 -77.40546958 0 0 1 1.770156093e-38
32.94152494 40.80446403 -77.44929022 0 0 1 1.724058278e-38
33.00141095 40.71890871 -77.651462 0 0 1 1.76093653e-38
33.05730512 40.62531991 -77.84015755 0 0 1 1.770156093e-38
32.97609167 40.29036873 -77.56598555 0 0 1 1.705619152e-38
32.88163089 39.93365427 -77.2470913 0 0 1 1.594984397e-38
32.8818526 39.74296924 -77.24783977 0 0 1 1.530447456e-38
32.91262366 39.60508587 -77.35172113 0 0 1 1.226201877e-38
32.82648885 39.26558988 -77.06093488 0 0 1 1.226201877e-38
32.63089261 38.74015346 -76.40061304 0 0 1 1.475130078e-38
32.63445032 38.55723758 -76.41262369 0 0 1 1.539667019e-38
32.63622244 38.37123548 -76.41860626 0 0 1 1.539667019e-38
32.63556444 38.18110471 -76.41638488 0 0 1 1.530447456e-38
32.63528205 37.99161538 -76.41543156 0 0 1 1.539667019e-38
32.63908567 37.8089547 -76.42827237 0 0 1 1.567325708e-38
32.63744024 37.61717566 -76.42271747 0 0 1 1.558106145e-38
32.64055744 37.43329854 -76.43324099 0 0 1 1.548886582e-38
32.64396753 37.24985115 -76.44475325 0 0 1 1.567325708e-38
32.64680685 37.06541265 -76.45433863 0 0 1 1.567325708e-38
32.65640979 36.89194009 -76.48675762 0 0 1 1.613423523e-38
32.65432744 36.69937729 -76.47972771 0 0 1 1.622643086e-38
32.69919368 36.58251265 -76.6311936 0 0 1 1.585764834e-38
32.71434438 36.41725664 -76.68234151 0 0 1 1.558106145e-38
32.72444295 36.24368984 -76.7164337 0 0 1 1.576545271e-38
32.73683891 36.07359938 -76.75828178 0 0 1 1.576545271e-38
32.77476453 35.9435933 -76.88631652 0 0 1 1.576545271e-38
32.78659946 35.77199486 -76.92627058 0 0 1 1.60420396e-38
32.78848662 35.58466512 -76.93264151 0 0 1 1.641082212e-38
32.79461981 35.40389868 -76.95334681 0 0 1 1.650301775e-38
32.79738111 35.21782085 -76.96266881 0 0 1 1.631862649e-38
32.84913469 35.10697199 -77.13738597 0 0 1 1.576545271e-38
32.87120662 34.94990174 -77.21189957 0 0 1 1.60420396e-38
32.92617849 34.84246314 -77.39748149 0 0 1 1.622643086e-38
32.93072646 34.65789491 -77.41283517 0 0 1 1.668740901e-38
32.93914775 34.47907259 -77.44126496 0 0 1 1.641082212e-38
32.94658893 34.29864465 -77.46638598 0 0 1 1.641082212e-38
32.99769181 34.18298969 -77.63890639 0 0 1 1.641082212e-38
33.02479751 34.03101307 -77.7304137 0 0 1 1.659521338e-38
33.07406958 33.91116092 -77.89675344 0 0 1 1.705619152e-38
33.07861645 33.72512827 -77.91210339 0 0 1 1.687180026e-38
33.09430884 33.55521375 -77.96508004 0 0 1 1.668740901e-38
33.14705531 33.43856599 -78.14314912 0 0 1 1.613423523e-38
33.17889934 33.29101591 -78.25065275 0 0 1 1.650301775e-38
33.22730203 33.16657835 -78.41405751 0 0 1 1.714838715e-38
33.23313166 32.98089728 -78.43373802 0 0 1 1.714838715e-38
33.28318642 32.85752991 -78.60272004 0 0 1 1.696399589e-38
33.32240441 32.7181241 -78.73511776 0 0 1 1.668740901e-38
33.37412139 32.59549332 -78.90971137 0 0 1 1.668740901e-38
33.37972383 32.40807662 -78.9286249 0 0 1 1.668740901e-38
33.43638046 32.29090937 -79.11989445 0 0 1 1.668740901e-38
33.46681495 32.13688575 -79.22263959 0 0 1 1.594984397e-38
33.53922184 32.03948291 -79.46708115 0 0 1 1.687180026e-38
33.54162923 31.84617828 -79.47520835 0 0 1 1.687180026e-38
33.61910645 31.75375807 -79.73676708 0 0 1 1.650301775e-38
33.67832063 31.63564341 -79.93667078 0 0 1 1.650301775e-38
33.69249224 31.45673643 -79.98451336 0 0 1 1.668740901e-38
33.77976039 31.3740333 -80.27912567 0 0 1 1.585764834e-38
33.84480586 31.26073863 -80.49871552 0 0 1 1.650301775e-38
33.85219207 31.07124734 -80.52365093 0 0 1 1.631862649e-38
33.94476713 30.99189328 -80.83617911 0 0 1 1.613423523e-38
34.00310207 30.86696182 -81.03311455 0 0 1 1.631862649e-38
34.07800449 30.76222284 -81.28598088 0 0 1 1.567325708e-38
34.16315905 30.66924554 -81.57345787 0 0 1 1.594984397e-38
34.23297275 30.5555027 -81.80914495 0 0 1 1.539667019e-38
34.28125949 30.41363021 -81.97215827 0 0 1 1.539667019e-38
34.3883419 30.34410518 -82.33366241 0 0 1 1.539667019e-38
34.46660626 30.23717688 -82.59787849 0 0 1 1.530447456e-38
34.24441722 29.76013356 -81.84778086 0 0 1 1.336836633e-38
37.38139744 32.01027732 -92.43804858 0 0 1 1.779375656e-38
37.3727265 31.77156811 -92.40877599 0 0 1 1.705619152e-38
37.46650019 31.65105591 -92.72535065 0 0 1 1.705619152e-38
37.58509164 31.55736915 -93.12570868 0 0 1 1.714838715e-38
37.68620106 31.44184836 -93.46704838 0 0 1 1.714838715e-38
37.80077968 31.33982279 -93.85385931 0 0 1 1.705619152e-38
37.90075492 31.21954322 -94.19137005 0 0 1 1.687180026e-38
38.01921291 31.11812094 -94.59127754 0 0 1 1.696399589e-38
38.13137214 31.0077775 -94.96992075 0 0 1 1.724058278e-38
38.24552601 30.89774286 -95.35529775 0 0 1 1.668740901e-38
38.37751039 30.80515765 -95.80086956 0 0 1 1.659521338e-38
38.53248322 30.73513131 -96.32404907 0 0 1 1.650301775e-38
38.68531424 30.66022754 -96.83999795 0 0 1 1.622643086e-38
38.79447791 30.53646227 -97.20852831 0 0 1 1.641082212e-38
38.92223521 30.43043712 -97.63982973 0 0 1 1.585764834e-38
39.06555229 30.33851956 -98.12366007 0 0 1 1.594984397e-38
39.23495885 30.27122276 -98.69556703 0 0 1 1.548886582e-38
39.39109802 30.18746987 -99.22268404 0 0 1 1.548886582e-38
39.61091009 30.1659758 -99.96475716 0 0 1 1.576545271e-38
39.66693903 29.97532506 -100.1539077 0 0 1 1.567325708e-38
39.88988413 29.95099602 -100.9065577 0 0 1 1.484349641e-38
40.12608059 29.93611144 -101.7039436 0 0 1 1.493569204e-38
40.3663631 29.92130837 -102.5151238 0 0 1 1.493569204e-38
40.43673787 29.73649365 -102.752705 0 0 1 1.438251826e-38
40.70226224 29.73953393 -103.6491003 0 0 1 1.392154011e-38
40.96763375 29.73799296 -104.5449795 0 0 1 1.355275759e-38
41.31406045 29.80917996 -105.7144964 0 0 1 1.336836633e-38
41.59804208 29.81565871 -106.6732023 0 0 1 1.244641003e-38
42.13786626 30.05666935 -108.4956182 0 0 1 1.355275759e-38
42.59739683 30.21424108 -110.0469674 0 0 1 1.087908432e-38
43.34728572 30.6308443 -112.5785499 0 0 1 7.099063499e-39
100.416407 71.72600499 -305.2406745 0 0 1 2.102060361e-38
102.6037809 72.68794053 -312.6251249 0 0 1 2.148158176e-38
102.65108 71.95139633 -312.784804 0 0 1 2.138938613e-38
102.6354096 71.16568685 -312.7319016 0 0 1 2.138938613e-38
102.6117243 70.37414873 -312.6519415 0 0 1 2.138938613e-38
102.6117243 69.60080643 -312.6519415 0 0 1 2.138938613e-38
102.5998 68.81860222 -312.6116858 0 0 1 2.138938613e-38
102.6393361 68.0744119 -312.7451574 0 0 1 2.148158176e-38
102.5798039 67.25758999 -312.5441802 0 0 1 2.148158176e-38
102.6077556 66.50458722 -312.6385434 0 0 1 2.148158176e-38
102.631477 65.7481151 -312.7186257 0 0 1 2.148158176e-38
102.623594 64.96907847 -312.692013 0 0 1 2.138938613e-38
102.1173095 63.84474097 -310.9828251 0 0 1 2.12971905e-38
102.6432567 63.43565926 -312.758393 0 0 1 2.12971905e-38
102.6156869 62.64340603 -312.6653191 0 0 1 2.12971905e-38
102.6627705 61.9014839 -312.8242707 0 0 1 2.12971905e-38
102.1362511 60.78038136 -311.0467709 0 0 1 2.12971905e-38
102.6627705 60.3539468 -312.8242707 0 0 1 2.12971905e-38
102.6037809 59.54224916 -312.6251249 0 0 1 2.12971905e-38
102.65108 58.79899055 -312.784804 0 0 1 2.12971905e-38
102.0672903 57.65970508 -310.8139632 0 0 1 2.12971905e-38
102.091815 56.90606351 -310.8967572 0 0 1 2.12971905e-38
102.6549827 56.48035679 -312.7979795 0 0 1 2.12971905e-38
102.1401865 55.39714401 -311.0600565 0 0 1 2.12971905e-38
102.0737578 54.58835526 -310.8357972 0 0 1 2.12971905e-38
102.6354096 54.14780521 -312.7319016 0 0 1 2.12971905e-38
102.1219418 53.07841752 -310.9984634 0 0 1 2.12971905e-38
102.0662588 52.2775469 -310.8104809 0 0 1 2.12971905e-38
102.1401865 51.55012012 -311.0600565 0 0 1 2.138938613e-38
102.1244121 50.77202167 -311.006803 0 0 1 2.148158176e-38
102.1123574 49.99620567 -310.9661072 0 0 1 2.148158176e-38
102.6471713 49.51285052 -312.7716085 0 0 1 2.148158176e-38
102.1235862 48.46376803 -311.0040149 0 0 1 2.148158176e-38
102.6588796 47.97163559 -312.8111351 0 0 1 2.148158176e-38
102.6354096 47.18594454 -312.7319016 0 0 1 2.148158176e-38
102.118816 46.15357959 -310.987911 0 0 1 2.157377739e-38
102.1140534 45.38200684 -310.9718326 0 0 1 2.185036428e-38
102.1029676 44.6074512 -310.9344076 0 0 1 2.185036428e-38
102.0567523 43.81636005 -310.7783873 0 0 1 2.148158176e-38
102.6393361 43.3200803 -312.7451574 0 0 1 2.148158176e-38
102.6471713 42.55010591 -312.7716085 0 0 1 2.148158176e-38
102.1124398 41.53534645 -310.9663851 0 0 1 2.148158176e-38
102.0392309 40.73377334 -310.7192361 0 0 1 2.157377739e-38
102.0378295 39.96460305 -310.714505 0 0 1 2.166597302e-38
102.102974 39.22379603 -310.9344293 0 0 1 2.185036428e-38
102.631477 38.67536183 -312.7186257 0 0 1 2.194255991e-38
102.1203071 37.6927001 -310.9929448 0 0 1 2.194255991e-38
102.0176738 36.88232406 -310.6464605 0 0 1 2.185036428e-38
102.6666556 36.36864655 -312.8373864 0 0 1 2.185036428e-38
102.0643435 35.36348719 -310.8040149 0 0 1 2.194255991e-38
102.6471713 34.81372302 -312.7716085 0 0 1 2.194255991e-38
102.6471713 34.04008473 -312.7716085 0 0 1 2.194255991e-38
102.0801694 33.06285536 -310.8574423 0 0 1 2.194255991e-38
102.0777223 32.29309349 -310.8491808 0 0 1 2.194255991e-38
102.009572 31.50087802 -310.6191093 0 0 1 2.194255991e-38
102.0376565 30.74194457 -310.713921 0 0 1 2.194255991e-38
102.0358983 29.97282337 -310.7079854 0 0 1 2.194255991e-38
102.0042081 29.19423371 -310.6010013 0 0 1 2.194255991e-38
102.1370953 28.46702172 -311.0496209 0 0 1 2.194255991e-38
102.0603733 27.6745791 -310.7906118 0 0 1 2.194255991e-38
102.039044 26.89960701 -310.7186051 0 0 1 2.194255991e-38
102.1053456 26.14987069 -310.9424358 0 0 1 2.194255991e-38
102.0444375 25.36397286 -310.7368134 0 0 1 2.194255991e-38
102.0854999 24.60634 -310.8754378 0 0 1 2.194255991e-38
102.0043563 23.8163869 -310.6015014 0 0 1 2.194255991e-38
102.6549827 23.21110553 -312.7979795 0 0 1 2.194255991e-38
102.0418438 22.28892381 -310.728057 0 0 1 2.194255991e-38
102.6037809 21.65172697 -312.6251249 0 0 1 2.194255991e-38
101.9960947 20.74144206 -310.5736108 0 0 1 2.22191468e-38
102.6744081 20.1205089 -312.8635585 0 0 1 2.22191468e-38
102.0643435 19.21928652 -310.8040149 0 0 1 2.203475554e-38
102.0807513 18.45380333 -310.8594067 0 0 1 2.203475554e-38
102.0643435 17.6817436 -310.8040149 0 0 1 2.194255991e-38
102.0578451 16.91177834 -310.7820768 0 0 1 2.185036428e-38
102.0223679 16.13683992 -310.6623075 0 0 1 2.194255991e-38
102.0349059 15.37051292 -310.7046352 0 0 1 2.22191468e-38
102.0742803 14.6082343 -310.837561 0 0 1 2.203475554e-38
102.0596474 13.83718044 -310.7881611 0 0 1 2.194255991e-38
102.0502773 13.06711805 -310.7565282 0 0 1 2.194255991e-38
102.0183587 12.29419953 -310.6487727 0 0 1 2.194255991e-38
102.0343622 11.52781658 -310.7027996 0 0 1 2.194255991e-38
102.0432562 10.76033523 -310.7328253 0 0 1 2.194255991e-38
102.0484297 9.992301475 -310.750291 0 0 1 2.194255991e-38
102.0700481 9.225829158 -310.8232734 0 0 1 2.194255991e-38
102.039044 8.454162204 -310.7186051 0 0 1 2.194255991e-38
102.0484297 7.68638575 -310.750291 0 0 1 2.194255991e-38
102.0647743 6.918975522 -310.8054692 0 0 1 2.194255991e-38
102.0409366 6.148608033 -310.7249944 0 0 1 2.194255991e-38
102.089376 5.382863439 -310.8885231 0 0 1 2.194255991e-38
102.0513982 4.611980174 -310.7603121 0 0 1 2.203475554e-38
102.0102327 3.841598078 -310.62134 0 0 1 2.22191468e-38
102.0465631 3.074491951 -310.7439892 0 0 1 2.231134243e-38
102.0807513 2.306725416 -310.8594067 0 0 1 2.22191468e-38
102.6354096 1.547080149 -312.7319016 0 0 1 2.203475554e-38
102.0117154 0.7683319963 -310.6263453 0 0 1 2.203475554e-38
102.0423307 0 -310.729701 0 0 1 2.203475554e-38
102.0754739 -0.7688644037 -310.8415905 0 0 1 2.203475554e-38
102.0966395 -1.538082289 -310.9130445 0 0 1 2.203475554e-38
102.0636122 -2.306296063 -310.8015461 0 0 1 2.203475554e-38
102.6471713 -3.094553157 -312.7716085 0 0 1 2.203475554e-38
102.65108 -3.868354641 -312.784804 0 0 1 2.203475554e-38
102.6354096 -4.641240447 -312.7319016 0 0 1 2.203475554e-38
102.0563976 -5.380935769 -310.7771901 0 0 1 2.203475554e-38
102.0005248 -6.145908405 -310.5885665 0 0 1 2.203475554e-38
102.6196435 -6.960675797 -312.6786762 0 0 1 2.203475554e-38
102.0563976 -7.687051099 -310.7771901 0 0 1 2.203475554e-38
102.6432567 -8.509661609 -312.758393 0 0 1 2.203475554e-38
102.0243929 -9.221254298 -310.6691438 0 0 1 2.203475554e-38
102.0369658 -9.991057007 -310.7115893 0 0 1 2.203475554e-38
101.9969549 -10.75492238 -310.5765149 0 0 1 2.203475554e-38
102.0230409 -11.52639853 -310.6645795 0 0 1 2.194255991e-38
102.0501483 -12.29844681 -310.7560926 0 0 1 2.185036428e-38
102.0190262 -13.06268175 -310.6510262 0 0 1 2.185036428e-38
101.982024 -13.82551312 -310.5261088 0 0 1 2.194255991e-38
102.0042081 -14.59711686 -310.6010013 0 0 1 2.185036428e-38
102.6471713 -15.47276579 -312.7716085 0 0 1 2.185036428e-38
102.0130257 -16.13520171 -310.6307691 0 0 1 2.185036428e-38
101.9904198 -16.89939175 -310.5544526 0 0 1 2.194255991e-38
102.0203672 -17.67329757 -310.6555533 0 0 1 2.194255991e-38
102.0078302 -18.43918928 -310.6132291 0 0 1 2.194255991e-38
102.0338096 -19.21291228 -310.7009341 0 0 1 2.194255991e-38
102.0323063 -19.98110239 -310.695859 0 0 1 2.194255991e-38
102.0230409 -20.74751735 -310.6645795 0 0 1 2.175816865e-38
101.9982289 -21.51014263 -310.5808159 0 0 1 2.166597302e-38
102.0621561 -22.29384267 -310.7966305 0 0 1 2.175816865e-38
102.0596474 -23.0619674 -310.7881611 0 0 1 2.175816865e-38
102.0813445 -23.83631618 -310.8614092 0 0 1 2.166597302e-38
101.9650079 -24.5741431 -310.4686637 0 0 1 2.157377739e-38
101.9749268 -25.34481833 -310.5021491 0 0 1 2.175816865e-38
102.0456033 -26.13290908 -310.7407489 0 0 1 2.185036428e-38
102.048157 -26.90227041 -310.7493702 0 0 1 2.175816865e-38
102.0538531 -27.67261904 -310.7686 0 0 1 2.175816865e-38
102.0163679 -28.42972134 -310.6420521 0 0 1 2.175816865e-38
102.0302684 -29.20250301 -310.6889794 0 0 1 2.175816865e-38
102.0163679 -29.96646303 -310.6420521 0 0 1 2.175816865e-38
102.0236776 -30.73727542 -310.6667291 0 0 1 2.175816865e-38
102.0782826 -31.52440216 -310.8510726 0 0 1 2.175816865e-38
102.092598 -32.29831064 -310.8994004 0 0 1 2.166597302e-38
102.0143439 -33.03921966 -310.6352191 0 0 1 2.138938613e-38
102.0524165 -33.82156208 -310.7637499 0 0 1 2.138938613e-38
102.0640353 -34.59459993 -310.8029745 0 0 1 2.138938613e-38
102.6037809 -35.5706943 -312.6251249 0 0 1 2.138938613e-38
102.0108955 -36.11128204 -310.6235773 0 0 1 2.138938613e-38
102.097385 -36.91427373 -310.915561 0 0 1 2.138938613e-38
102.0369658 -37.65859949 -310.7115893 0 0 1 2.138938613e-38
102.0062976 -38.41433781 -310.6080553 0 0 1 2.138938613e-38
102.0475445 -39.20019033 -310.7473024 0 0 1 2.138938613e-38
102.0632986 -39.97566223 -310.8004873 0 0 1 2.138938613e-38
101.9984335 -40.71571765 -310.5815064 0 0 1 2.148158176e-38
101.9988688 -41.48413503 -310.582976 0 0 1 2.148158176e-38
102.0491416 -42.27544856 -310.7526941 0 0 1 2.148158176e-38
102.0430309 -43.04123559 -310.7320648 0 0 1 2.148158176e-38
102.0250206 -43.80125669 -310.6712629 0 0 1 2.12971905e-38
102.0243929 -44.56939577 -310.6691438 0 0 1 2.12971905e-38
101.9656572 -45.30889623 -310.4708556 0 0 1 2.12971905e-38
101.9935538 -46.09082042 -310.5650328 0 0 1 2.138938613e-38
102.0156699 -46.87026611 -310.6396956 0 0 1 2.092840798e-38
48.5208859 -19.94314964 -130.0443314 0 0 1 1.263080129e-38
47.90832374 -19.94256068 -127.9763562 0 0 1 1.244641003e-38
47.21396378 -19.8880268 -125.6322363 0 0 1 1.272299692e-38
46.73433195 -19.93844547 -124.0130263 0 0 1 1.263080129e-38
46.19935752 -19.95035326 -122.2069829 0 0 1 1.281519255e-38
45.63235158 -19.93540576 -120.292803 0 0 1 1.299958381e-38
45.0275089 -19.88950418 -118.2508883 0 0 1 1.290738818e-38
44.60532721 -19.93874609 -116.8256268 0 0 1 1.309177944e-38
44.12483147 -19.94685117 -115.2035003 0 0 1 1.272299692e-38
43.62984781 -19.93834207 -113.5324635 0 0 1 1.290738818e-38
43.18163565 -19.94968665 -112.0193246 0 0 1 1.309177944e-38
42.70164815 -19.93417624 -110.398914 0 0 1 1.281519255e-38
42.28959533 -19.95262838 -109.007847 0 0 1 1.299958381e-38
41.85858358 -19.95232538 -107.5527757 0 0 1 1.299958381e-38
41.36782691 -19.90690836 -105.896009 0 0 1 1.309177944e-38
41.03721224 -19.9562632 -104.7798725 0 0 1 1.346056196e-38
40.56844021 -19.91011065 -103.1973247 0 0 1 1.32761707e-38
40.25088481 -19.95588374 -102.1252756 0 0 1 1.32761707e-38
39.80500212 -19.91062698 -100.6200009 0 0 1 1.318397507e-38
39.50709063 -19.95800842 -99.61426853 0 0 1 1.346056196e-38
39.0870885 -19.91681533 -98.1963651 0 0 1 1.318397507e-38
38.7954655 -19.95758502 -97.21186236 0 0 1 1.272299692e-38
38.45586069 -19.95982844 -96.06537572 0 0 1 1.336836633e-38
38.1050413 -19.94844031 -94.88102933 0 0 1 1.346056196e-38
37.73332419 -19.91618591 -93.62613338 0 0 1 1.309177944e-38
37.47295954 -19.95861915 -92.74715705 0 0 1 1.346056196e-38
37.16420288 -19.96114408 -91.70481203 0 0 1 1.318397507e-38
36.8527752 -19.95652749 -90.65344981 0 0 1 1.382934448e-38
36.56121448 -19.96164051 -89.66915732 0 0 1 1.336836633e-38
36.2586006 -19.95348514 -88.64754999 0 0 1 1.336836633e-38
35.93192549 -19.92179122 -87.5447133 0 0 1 1.318397507e-38
35.6873155 -19.9483721 -86.71892382 0 0 1 1.318397507e-38
35.42995849 -19.96086221 -85.8501011 0 0 1 1.32761707e-38
35.15750673 -19.95707985 -84.93031939 0 0 1 1.382934448e-38
34.85713302 -19.92636409 -83.91627471 0 0 1 1.373714885e-38
34.64312765 -19.96058903 -83.19380471 0 0 1 1.346056196e-38
34.34559943 -19.92289012 -82.18936627 0 0 1 1.318397507e-38
34.39408508 -20.16626736 -82.35305106 0 0 1 2.148158176e-38
34.38885648 -20.36560096 -82.33539962 0 0 1 2.166597302e-38
34.39044412 -20.57059596 -82.3407594 0 0 1 2.157377739e-38
34.39104106 -20.77477366 -82.34277462 0 0 1 2.157377739e-38
34.39285522 -20.98000826 -82.34889913 0 0 1 2.138938613e-38
34.39347189 -21.1842332 -82.350981 0 0 1 2.12971905e-38
34.39524486 -21.38948227 -82.35696644 0 0 1 2.12971905e-38
34.39435771 -21.59240637 -82.35397146 0 0 1 2.12971905e-38
34.39583946 -21.79743225 -82.35897378 0 0 1 2.120499487e-38
34.39435771 -21.99981027 -82.35397146 0 0 1 2.102060361e-38
34.39343984 -22.20267678 -82.35087278 0 0 1 2.092840798e-38
34.39372246 -22.40663066 -82.3518269 0 0 1 2.092840798e-38
34.39343984 -22.61006534 -82.35087278 0 0 1 2.092840798e-38
34.39343984 -22.81375962 -82.35087278 0 0 1 2.092840798e-38
34.39225991 -23.01634053 -82.34688941 0 0 1 2.092840798e-38
34.39165135 -23.21944564 -82.34483493 0 0 1 2.092840798e-38
34.39253955 -23.42397793 -82.34783344 0 0 1 2.083621235e-38
34.39401626 -23.6290951 -82.35281875 0 0 1 2.074401672e-38
34.3937121 -23.83249703 -82.35179192 0 0 1 2.065182109e-38
34.39278528 -24.03528035 -82.34866303 0 0 1 2.065182109e-38
34.39219741 -24.238385 -82.3466784 0 0 1 2.065182109e-38
34.39133264 -24.44120238 -82.34375901 0 0 1 2.065182109e-38
34.3937431 -24.64731457 -82.35189656 0 0 1 2.055962546e-38
34.39523674 -24.85253303 -82.35693903 0 0 1 2.028303857e-38
34.39610584 -25.05713497 -82.35987305 0 0 1 2.019084294e-38
34.3950116 -25.25971848 -82.35617896 0 0 1 2.019084294e-38
34.39342909 -25.46177408 -82.35083651 0 0 1 2.03752342e-38
34.39217215 -25.66414578 -82.34659314 0 0 1 2.028303857e-38
34.39189109 -25.86753142 -82.3456443 0 0 1 2.019084294e-38
34.39073526 -26.06997736 -82.34174228 0 0 1 2.019084294e-38
34.39339667 -26.27651592 -82.35072704 0 0 1 2.009864731e-38
34.39462329 -26.4815414 -82.35486804 0 0 1 2.000645168e-38
34.39310248 -26.68358195 -82.34973388 0 0 1 2.000645168e-38
34.39365984 -26.88788777 -82.35161549 0 0 1 2.009864731e-38
34.39100362 -27.08863389 -82.34264824 0 0 1 2.000645168e-38
34.39091155 -27.29220481 -82.34233742 0 0 1 1.991425605e-38
34.38902817 -27.49375484 -82.33597924 0 0 1 1.991425605e-38
34.3901332 -27.69866721 -82.33970976 0 0 1 1.991425605e-38
34.38765331 -27.89949688 -82.33133778 0 0 1 2.009864731e-38
34.38728333 -28.1027165 -82.33008875 0 0 1 2.009864731e-38
34.38971834 -28.3091857 -82.33830922 0 0 1 2.000645168e-38
34.39088231 -28.51420964 -82.3422387 0 0 1 1.982206042e-38
34.39244214 -28.71971912 -82.34750462 0 0 1 1.954547353e-38
34.39241744 -28.92337578 -82.34742121 0 0 1 1.982206042e-38
34.38734715 -29.12100707 -82.33030419 0 0 1 1.991425605e-38
34.38720337 -29.32447759 -82.3298188 0 0 1 1.982206042e-38
34.38603076 -29.52669999 -82.32586014 0 0 1 1.972986479e-38
34.38605249 -29.73035891 -82.32593351 0 0 1 1.972986479e-38
34.38540176 -29.93319273 -82.32373669 0 0 1 1.972986479e-38
34.38506335 -30.13640167 -82.32259424 0 0 1 1.972986479e-38
34.38796552 -30.34363689 -82.33239179 0 0 1 1.908449538e-38
34.38935906 -30.54903095 -82.33709631 0 0 1 1.899229975e-38
34.38841975 -30.75150678 -82.33392525 0 0 1 1.936108227e-38
34.38612186 -30.95224253 -82.32616771 0 0 1 1.94532779e-38
34.38606243 -31.15579977 -82.32596707 0 0 1 1.936108227e-38
34.38149278 -31.35355607 -82.31054017 0 0 1 1.917669101e-38
34.38845629 -31.56616352 -82.3340486 0 0 1 1.908449538e-38
34.388017 -31.76924394 -82.33256557 0 0 1 1.908449538e-38
34.38686639 -31.97138449 -82.3286812 0 0 1 1.890010412e-38
34.38588256 -32.17372584 -82.32535982 0 0 1 1.871571286e-38
34.38587682 -32.37734941 -82.32534046 0 0 1 1.843912597e-38
34.38801157 -32.58383269 -82.33254726 0 0 1 1.843912597e-38
34.38648944 -32.78543527 -82.32740861 0 0 1 1.834693034e-38
34.38465169 -32.98658548 -82.32120447 0 0 1 1.825473471e-38
34.38609107 -33.19216554 -82.32606376 0 0 1 1.816253908e-38
34.38358656 -33.39236863 -82.31760868 0 0 1 1.807034345e-38
34.38527118 -33.59830172 -82.32329585 0 0 1 1.807034345e-38
34.38712301 -33.80449472 -82.32954752 0 0 1 1.797814782e-38
34.3815855 -34.00041414 -82.31085321 0 0 1 1.788595219e-38
34.3831422 -34.20619327 -82.31610854 0 0 1 1.788595219e-38
34.38420873 -34.41130666 -82.31970909 0 0 1 1.779375656e-38
34.38295406 -34.61314277 -82.31547337 0 0 1 1.770156093e-38
34.38080595 -34.81368218 -82.30822148 0 0 1 1.76093653e-38
34.38058651 -35.01695578 -82.30748065 0 0 1 1.751716967e-38
34.38237015 -35.22311942 -82.31350215 0 0 1 1.76093653e-38
34.38383355 -35.42884753 -82.31844249 0 0 1 1.76093653e-38
34.38714464 -35.63730015 -82.32962055 0 0 1 1.751716967e-38
34.38230677 -35.83383181 -82.31328817 0 0 1 1.751716967e-38
34.38191326 -36.03685151 -82.31195969 0 0 1 1.751716967e-38
34.38120516 -36.23939704 -82.30956919 0 0 1 1.751716967e-38
34.38171958 -36.44375808 -82.31130585 0 0 1 1.742497404e-38
34.37950063 -36.64401925 -82.30381479 0 0 1 1.733277841e-38
34.37967092 -36.84785453 -82.3043897 0 0 1 1.724058278e-38
34.37871119 -37.04997527 -82.30114971 0 0 1 1.724058278e-38
34.38268459 -37.25961838 -82.31456367 0 0 1 1.714838715e-38
34.38123598 -37.46099711 -82.30967324 0 0 1 1.714838715e-38
34.38225505 -37.66616377 -82.31311358 0 0 1 1.714838715e-38
34.38136816 -37.86838716 -82.31011948 0 0 1 1.705619152e-38
34.38051252 -38.07064454 -82.30723088 0 0 1 1.696399589e-38
34.38156239 -38.27587903 -82.31077518 0 0 1 1.677960464e-38
34.37843394 -38.47453675 -82.30021371 0 0 1 1.677960464e-38
34.37778727 -38.67707973 -82.29803058 0 0 1 1.668740901e-38
34.37863015 -38.88198764 -82.30087609 0 0 1 1.659521338e-38
34.3782931 -39.08501787 -82.29973824 0 0 1 1.659521338e-38
34.37573525 -39.2844634 -82.29110309 0 0 1 1.659521338e-38
34.3783046 -39.49217211 -82.29977707 0 0 1 1.659521338e-38
34.37785529 -39.69500838 -82.29826021 0 0 1 1.659521338e-38
34.38027602 -39.90253447 -82.30643247 0 0 1 1.659521338e-38
34.37949775 -40.10483855 -82.30380506 0 0 1 1.641082212e-38
34.38157289 -40.3118474 -82.31081061 0 0 1 1.631862649e-38
34.3770804 -40.50797731 -82.29564422 0 0 1 1.631862649e-38
34.37524647 -40.70847219 -82.289453 0 0 1 1.631862649e-38
34.37777325 -40.91625557 -82.29798327 0 0 1 1.631862649e-38
34.37614607 -41.11707434 -82.29249 0 0 1 1.622643086e-38
34.37334925 -41.31588324 -82.28304808 0 0 1 1.594984397e-38
34.33261448 -41.45001907 -82.14552979 0 0 1 1.594984397e-38
34.37694932 -41.72909897 -82.29520171 0 0 1 1.585764834e-38
34.37615587 -41.93129069 -82.29252309 0 0 1 1.585764834e-38
34.37527487 -42.13331781 -82.28954887 0 0 1 1.585764834e-38
34.32751061 -42.25389976 -82.12829945 0 0 1 1.585764834e-38
34.3768481 -42.54314865 -82.29486001 0 0 1 1.585764834e-38
34.33223599 -42.66847357 -82.14425204 0 0 1 1.567325708e-38
34.37921818 -42.95443604 -82.30286127 0 0 1 1.548886582e-38
34.3405344 -43.08953048 -82.17226701 0 0 1 1.548886582e-38
34.33306562 -43.27949879 -82.14705282 0 0 1 1.548886582e-38
34.37493131 -43.55750205 -82.28838902 0 0 1 1.539667019e-38
34.33559429 -43.69041886 -82.15558947 0 0 1 1.530447456e-38
34.37495826 -43.96463013 -82.28848003 0 0 1 1.530447456e-38
34.33160311 -44.08960923 -82.14211549 0 0 1 1.521227893e-38
34.33124702 -44.29213893 -82.14091334 0 0 1 1.521227893e-38
34.34076436 -44.51271854 -82.17304335 0 0 1 1.521227893e-38
34.33398329 -44.70351558 -82.15015085 0 0 1 1.521227893e-38
34.33133365 -44.90182364 -82.14120579 0 0 1 1.521227893e-38
34.33592155 -45.11350428 -82.15669428 0 0 1 1.502788767e-38
34.33348394 -45.31217912 -82.14846507 0 0 1 1.493569204e-38
34.33509412 -45.51838456 -82.15390093 0 0 1 1.484349641e-38
34.33498584 -45.72138819 -82.15353539 0 0 1 1.493569204e-38
34.33534083 -45.92526429 -82.1547338 0 0 1 1.484349641e-38
34.33448457 -46.12685035 -82.15184312 0 0 1 1.484349641e-38
34.33457767 -46.33022959 -82.15215743 0 0 1 1.475130078e-38
34.3366675 -46.5374286 -82.15921257 0 0 1 1.456690952e-38
34.33628167 -46.7399078 -82.15791004 0 0 1 1.456690952e-38
34.33468672 -46.94004823 -82.15252558 0 0 1 1.456690952e-38
34.33777749 -47.1492396 -82.16295983 0 0 1 1.456690952e-38
34.33497367 -47.34701388 -82.15349431 0 0 1 1.456690952e-38
34.33656131 -47.55332216 -82.15885407 0 0 1 1.447471389e-38
34.33491214 -47.75330527 -82.15328658 0 0 1 1.429032263e-38
34.33739458 -47.96140294 -82.16166716 0 0 1 1.429032263e-38
34.33694181 -48.16373317 -82.16013863 0 0 1 1.4198127e-38
34.33719913 -48.36746706 -82.16100731 0 0 1 1.410593137e-38
34.33049241 -48.55730685 -82.13836581 0 0 1 1.392154011e-38
34.33522684 -48.76996371 -82.15434897 0 0 1 1.382934448e-38
34.33316464 -48.96902185 -82.14738711 0 0 1 1.382934448e-38
34.33496645 -49.17585389 -82.15346991 0 0 1 1.392154011e-38
34.337416 -49.38403039 -82.16173948 0 0 1 1.382934448e-38
34.33413607 -49.58057401 -82.1506666 0 0 1 1.373714885e-38
34.33593631 -49.7874561 -82.15674412 0 0 1 1.373714885e-38
34.34059905 -50.00024836 -82.17248526 0 0 1 1.373714885e-38
34.33597268 -50.19395932 -82.15686689 0 0 1 1.373714885e-38
34.33529822 -50.39577701 -82.15458997 0 0 1 1.373714885e-38
34.34066022 -50.61013468 -82.17269177 0 0 1 1.355275759e-38
34.33575879 -50.80315604 -82.15614482 0 0 1 1.346056196e-38
34.33611966 -51.00712502 -82.15736309 0 0 1 1.318397507e-38
34.33562359 -51.2092968 -82.15568841 0 0 1 1.318397507e-38
34.3358389 -51.41296315 -82.15641526 0 0 1 1.318397507e-38
34.33717271 -51.61900545 -82.16091813 0 0 1 1.318397507e-38
34.33868855 -51.82545762 -82.16603552 0 0 1 1.318397507e-38
34.33807318 -52.02737925 -82.16395809 0 0 1 1.309177944e-38
34.33941488 -52.23349055 -82.16848759 0 0 1 1.299958381e-38
34.33952918 -52.43697995 -82.16887345 0 0 1 1.290738818e-38
34.33740323 -52.63562616 -82.16169636 0 0 1 1.281519255e-38
34.3352653 -52.83421086 -82.15447881 0 0 1 1.299958381e-38
34.33969129 -53.04706559 -82.16942073 0 0 1 1.290738818e-38
34.33874622 -53.24824343 -82.16623022 0 0 1 1.263080129e-38
34.3400088 -53.4542538 -82.17049261 0 0 1 1.253860566e-38
34.33808019 -53.65325029 -82.16398172 0 0 1 1.253860566e-38
34.34390645 -53.86937493 -82.18365085 0 0 1 1.263080129e-38
34.33951147 -54.06289348 -82.16881366 0 0 1 1.281519255e-38
34.33548878 -54.25716865 -82.15523328 0 0 1 1.263080129e-38
34.33550462 -54.46041447 -82.15528675 0 0 1 1.23542144e-38
34.33785663 -54.66890817 -82.163227 0 0 1 1.226201877e-38
34.3385934 -54.87379943 -82.1657143 0 0 1 1.226201877e-38
34.33895154 -55.07784619 -82.16692337 0 0 1 1.23542144e-38
34.34046828 -55.28453044 -82.17204378 0 0 1 1.226201877e-38
34.3389751 -55.48437846 -82.16700289 0 0 1 1.207762751e-38
34.3312558 -55.66995617 -82.14094298 0 0 1 1.207762751e-38
34.32872878 -55.86732826 -82.1324119 0 0 1 1.180104062e-38
34.38100135 -56.1909549 -82.30888114 0 0 1 1.152445373e-38
34.38636179 -56.40694431 -82.32697769 0 0 1 1.134006247e-38
34.38208164 -56.60064352 -82.31252813 0 0 1 1.124786684e-38
34.38229289 -56.80473513 -82.31324132 0 0 1 1.115567121e-38
34.38060409 -57.00438775 -82.30754003 0 0 1 1.097127995e-38
34.33317656 -57.09668831 -82.14742737 0 0 1 1.115567121e-38
34.33295179 -57.29935009 -82.14666856 0 0 1 1.097127995e-38
34.38547957 -57.62667055 -82.32399935 0 0 1 1.078688869e-38
34.38338067 -57.82532082 -82.3169136 0 0 1 1.078688869e-38
34.38075525 -58.02268297 -82.30805032 0 0 1 1.078688869e-38
34.38133333 -58.22765192 -82.3100019 0 0 1 1.069469306e-38
34.38124995 -58.43104527 -82.3097204 0 0 1 1.05103018e-38
34.38151133 -58.63526637 -82.31060282 0 0 1 1.05103018e-38
34.38284181 -58.84207182 -82.31509443 0 0 1 1.05103018e-38
34.38131998 -59.04199233 -82.30995681 0 0 1 1.041810617e-38
34.37954907 -59.24128218 -82.30397833 0 0 1 1.023371491e-38
34.37932946 -59.44432499 -82.30323694 0 0 1 1.023371491e-38
34.38041334 -59.65055332 -82.30689604 0 0 1 1.014151928e-38
34.37947671 -59.85183939 -82.30373404 0 0 1 1.004932366e-38
34.3765919 -60.04831077 -82.2939951 0 0 1 9.772736766e-39
34.37746036 -60.25401094 -82.29692697 0 0 1 9.772736766e-39
34.37762337 -60.45797606 -82.29747727 0 0 1 9.772736766e-39
34.37602259 -60.65755488 -82.29207315 0 0 1 9.680541136e-39
34.37831636 -60.8668307 -82.29981677 0 0 1 9.496149876e-39
34.38138188 -61.07807817 -82.31016579 0 0 1 9.403954246e-39
34.37970312 -61.27745226 -82.30449839 0 0 1 9.496149876e-39
34.37720425 -61.47473016 -82.29606235 0 0 1 9.588345506e-39
34.37716527 -61.67819025 -82.29593076 0 0 1 9.680541136e-39
34.38427735 -61.89980274 -82.31994074 0 0 1 9.680541136e-39
34.3768004 -62.08437773 -82.29469896 0 0 1 9.588345506e-39
34.37754519 -62.28983617 -82.29721334 0 0 1 9.311758616e-39
34.36811137 -62.46921353 -82.26536531 0 0 1 9.035171727e-39
34.37726293 -62.69623334 -82.29626046 0 0 1 9.035171727e-39
34.38303518 -62.91468646 -82.31574723 0 0 1 9.127367356e-39
34.37463512 -63.09654935 -82.28738911 0 0 1 9.127367356e-39
34.37632381 -63.30447208 -82.29309004 0 0 1 8.942976097e-39
34.37360417 -63.50093792 -82.2839087 0 0 1 8.574193577e-39
34.37413348 -63.70585001 -82.28569562 0 0 1 8.389802318e-39
34.37540053 -63.91270529 -82.2899731 0 0 1 8.389802318e-39
34.37077073 -64.10407085 -82.27434314 0 0 1 8.113215428e-39
34.36899273 -64.3028842 -82.26834071 0 0 1 8.021019798e-39
34.36974587 -64.50836795 -82.27088327 0 0 1 8.297606688e-39
34.37495004 -64.72568363 -82.28845225 0 0 1 8.389802318e-39
34.37054904 -64.91750027 -82.27359473 0 0 1 8.297606688e-39
32.04679824 49.9430622 -72.11182776 0 0 1 9.127367356e-39
32.04679824 49.76469412 -72.11182776 0 0 1 1.309177944e-38
32.04679824 49.58632604 -72.11182776 0 0 1 1.272299692e-38
32.04679824 49.40795796 -72.11182776 0 0 1 1.456690952e-38
32.04679824 49.22958988 -72.11182776 0 0 1 1.539667019e-38
32.04679824 49.0512218 -72.11182776 0 0 1 1.493569204e-38
32.10120813 48.99346834 -72.28979447 0 0 1 1.087908432e-38
32.10610388 48.82547325 -72.30580775 0 0 1 1.253860566e-38
32.11093423 48.65725503 -72.32160714 0 0 1 1.364495322e-38
32.11225023 48.48125339 -72.32591156 0 0 1 1.521227893e-38
32.11326217 48.30456627 -72.32922146 0 0 1 1.521227893e-38
32.15894383 48.22507865 -72.47863946 0 0 1 1.521227893e-38
32.17037597 48.07059084 -72.5160323 0 0 1 1.51200833e-38
32.17744868 47.90650103 -72.53916608 0 0 1 1.502788767e-38
32.17886385 47.73012145 -72.54379489 0 0 1 1.456690952e-38
32.18182265 47.55702847 -72.55347269 0 0 1 1.530447456e-38
32.18443284 47.38314302 -72.56201024 0 0 1 1.558106145e-38
32.23317938 47.30738349 -72.721453 0 0 1 1.548886582e-38
32.24396276 47.15036496 -72.75672384 0 0 1 1.502788767e-38
32.2471887 46.97721364 -72.76727543 0 0 1 1.530447456e-38
32.25317567 46.80981797 -72.78685791 0 0 1 1.530447456e-38
32.29002543 46.70699598 -72.90738804 0 0 1 1.548886582e-38
32.3121162 46.57277083 -72.97964368 0 0 1 1.530447456e-38
32.33025286 46.4299667 -73.03896603 0 0 1 1.548886582e-38
32.34948646 46.28914101 -73.10187629 0 0 1 1.539667019e-38
32.3923174 46.19668685 -73.24196999 0 0 1 1.51200833e-38
32.43919392 46.11185318 -73.39529619 0 0 1 1.521227893e-38
32.45247651 45.9574983 -73.43874157 0 0 1 1.567325708e-38
32.46696937 45.80539599 -73.48614559 0 0 1 1.576545271e-38
32.48736861 45.66505324 -73.5528685 0 0 1 1.631862649e-38
32.55957246 45.62916081 -73.78903666 0 0 1 1.60420396e-38
32.58058696 45.48897824 -73.85777199 0 0 1 1.548886582e-38
32.59947734 45.34419372 -73.91955962 0 0 1 1.622643086e-38
32.61801438 45.19839748 -73.98019155 0 0 1 1.622643086e-38
32.66289822 45.1047379 -74.127 0 0 1 1.567325708e-38
32.71124776 45.01722159 -74.2851442 0 0 1 1.594984397e-38
32.73058522 44.87165124 -74.34839418 0 0 1 1.594984397e-38
32.74854625 44.72306196 -74.40714208 0 0 1 1.594984397e-38
32.7636898 44.56866575 -74.45667439 0 0 1 1.659521338e-38
32.83505056 44.52363646 -74.69008492 0 0 1 1.659521338e-38
32.85792222 44.38330105 -74.76489473 0 0 1 1.585764834e-38
32.87222368 44.22602413 -74.81167272 0 0 1 1.659521338e-38
32.8898237 44.07486724 -74.86923979 0 0 1 1.622643086e-38
32.93880718 43.98360121 -75.02945754 0 0 1 1.60420396e-38
32.98923791 43.89430586 -75.194409 0 0 1 1.594984397e-38
33.01079843 43.74930501 -75.2649303 0 0 1 1.641082212e-38
33.02140704 43.58322157 -75.29962951 0 0 1 1.631862649e-38
33.08217535 43.51152101 -75.4983937 0 0 1 1.650301775e-38
33.12330307 43.40197218 -75.6329164 0 0 1 1.650301775e-38
33.15665486 43.27722552 -75.74200519 0 0 1 1.696399589e-38
33.15526577 43.08729341 -75.73746168 0 0 1 1.705619152e-38
33.17758889 42.94131559 -75.81047732 0 0 1 1.650301775e-38
33.22643189 42.84389559 -75.97023556 0 0 1 1.668740901e-38
33.28682812 42.76690312 -76.16778274 0 0 1 1.631862649e-38
33.29702998 42.59715612 -76.20115151 0 0 1 1.677960464e-38
33.33181247 42.47198933 -76.31491991 0 0 1 1.668740901e-38
33.37603568 42.36336872 -76.45956752 0 0 1 1.687180026e-38
33.43829691 42.28657612 -76.66321481 0 0 1 1.714838715e-38
33.45018578 42.11830354 -76.70210157 0 0 1 1.705619152e-38
33.47867879 41.97952652 -76.795298 0 0 1 1.705619152e-38
33.52409443 41.87040897 -76.94384587 0 0 1 1.714838715e-38
33.58752296 41.79247185 -77.15131122 0 0 1 1.733277841e-38
33.59982975 41.62334431 -77.19156493 0 0 1 1.733277841e-38
33.62495167 41.47651616 -77.27373502 0 0 1 1.751716967e-38
33.48687301 41.04408316 -76.8221001 0 0 1 1.650301775e-38
33.48135284 40.84446223 -76.80404443 0 0 1 1.631862649e-38
33.462728 40.62224182 -76.7431253 0 0 1 2.489282006e-39
33.28925804 40.13348415 -76.17573065 0 0 1 1.4198127e-38
33.16348742 39.7293459 -75.76435349 0 0 1 1.475130078e-38
33.16684171 39.54766936 -75.77532486 0 0 1 1.502788767e-38
33.16524959 39.35753465 -75.77011727 0 0 1 1.521227893e-38
33.16065361 39.16234648 -75.75508451 0 0 1 1.521227893e-38
33.16185657 38.97699118 -75.7590192 0 0 1 1.51200833e-38
33.16556311 38.79580922 -75.77114276 0 0 1 1.530447456e-38
33.16447909 38.60658319 -75.76759708 0 0 1 1.530447456e-38
33.16855962 38.4259403 -75.78094389 0 0 1 1.548886582e-38
33.16641956 38.23496464 -75.77394408 0 0 1 1.539667019e-38
33.1676892 38.04962354 -75.77809689 0 0 1 1.548886582e-38
33.16704955 37.86114161 -75.77600467 0 0 1 1.585764834e-38
33.17274275 37.68296837 -75.79462631 0 0 1 1.585764834e-38
33.21088182 37.5572032 -75.91937357 0 0 1 1.585764834e-38
33.22102878 37.38575375 -75.95256277 0 0 1 1.585764834e-38
33.22461056 37.20362332 -75.96427828 0 0 1 1.585764834e-38
33.23628468 37.03433261 -76.00246258 0 0 1 1.585764834e-38
33.24716957 36.86360151 -76.03806546 0 0 1 1.585764834e-38
33.25664634 36.69047278 -76.06906258 0 0 1 1.585764834e-38
33.29902134 36.56882591 -76.20766494 0 0 1 1.650301775e-38
33.29671009 36.37671791 -76.20010521 0 0 1 1.650301775e-38
33.30935804 36.20788435 -76.24147477 0 0 1 1.668740901e-38
33.31159769 36.02276249 -76.24880035 0 0 1 1.668740901e-38
33.31290058 35.83616443 -76.25306192 0 0 1 1.659521338e-38
33.31448636 35.64997783 -76.25824877 0 0 1 1.650301775e-38
33.37452997 35.55268 -76.45464257 0 0 1 1.641082212e-38
33.40153372 35.40442424 -76.54296784 0 0 1 1.641082212e-38
33.44360122 35.27839979 -76.68056444 0 0 1 1.714838715e-38
33.44783625 35.09506966 -76.69441658 0 0 1 1.714838715e-38
33.45352069 34.91382867 -76.71300956 0 0 1 1.714838715e-38
33.45705157 34.72930725 -76.72455857 0 0 1 1.687180026e-38
33.4576105 34.54035261 -76.72638674 0 0 1 1.677960464e-38
33.52338556 34.44688933 -76.94152725 0 0 1 1.714838715e-38
33.54507521 34.28816118 -77.01247091 0 0 1 1.677960464e-38
33.59329125 34.16749723 -77.17017845 0 0 1 1.733277841e-38
33.59956251 33.98564858 -77.19069084 0 0 1 1.733277841e-38
33.60552538 33.80325684 -77.21019451 0 0 1 1.714838715e-38
33.65574965 33.68379311 -77.37447069 0 0 1 1.733277841e-38
33.682919 33.53087497 -77.46333762 0 0 1 1.705619152e-38
33.74593111 33.42797431 -77.66944094 0 0 1 1.779375656e-38
33.7507808 33.24264736 -77.68530357 0 0 1 1.742497404e-38
33.7631901 33.06776153 -77.72589255 0 0 1 1.705619152e-38
33.82182132 32.95662127 -77.91766665 0 0 1 1.687180026e-38
33.84352312 32.79374056 -77.98865002 0 0 1 1.668740901e-38
33.90135478 32.67990844 -78.17780888 0 0 1 1.742497404e-38
33.90862 32.49641102 -78.20157233 0 0 1 1.770156093e-38
33.97211983 32.38877474 -78.40927091 0 0 1 1.724058278e-38
34.00037891 32.23278225 -78.50170221 0 0 1 1.677960464e-38
34.05730342 32.11459858 -78.68789387 0 0 1 1.76093653e-38
34.06703626 31.93287848 -78.71972858 0 0 1 1.742497404e-38
34.14010248 31.83452117 -78.95871742 0 0 1 1.696399589e-38
34.20768392 31.72779294 -79.17976633 0 0 1 1.724058278e-38
34.22183488 31.55037483 -79.22605203 0 0 1 1.724058278e-38
34.28517105 31.43639646 -79.43321531 0 0 1 1.696399589e-38
34.31271359 31.27534912 -79.52330291 0 0 1 1.650301775e-38
34.37206914 31.1545223 -79.71744618 0 0 1 1.714838715e-38
34.43839793 31.04159243 -79.93439785 0 0 1 1.659521338e-38
34.48714618 30.9054008 -80.0938462 0 0 1 1.659521338e-38
34.53791265 30.77095126 -80.25989585 0 0 1 1.687180026e-38
34.60743157 30.65904443 -80.48728198 0 0 1 1.696399589e-38
34.69425529 30.56743324 -80.77126958 0 0 1 1.659521338e-38
34.71007068 30.387095 -80.82299939 0 0 1 1.641082212e-38
34.80827864 30.30715614 -81.14422316 0 0 1 1.613423523e-38
34.86661189 30.17723766 -81.33502262 0 0 1 1.714838715e-38
34.97146514 30.10245395 -81.67798215 0 0 1 1.60420396e-38
35.03826541 29.9804096 -81.89647597 0 0 1 1.650301775e-38
35.13158651 29.88882542 -82.20171553 0 0 1 1.558106145e-38
35.206322 29.77377784 -82.4461643 0 0 1 1.558106145e-38
35.36425686 29.7551232 -82.96274598 0 0 1 1.530447456e-38
35.36157507 29.54679111 -82.95397422 0 0 1 1.493569204e-38
35.19224259 29.14569898 -82.40011264 0 0 1 8.113215428e-39
38.71915898 32.06434791 -93.93613634 0 0 1 1.622643086e-38
38.7119639 31.82402261 -93.91260229 0 0 1 1.650301775e-38
38.81951753 31.71007158 -94.26439439 0 0 1 1.668740901e-38
38.94918096 31.61852873 -94.68850434 0 0 1 1.696399589e-38
39.05404731 31.49800486 -95.03150673 0 0 1 1.641082212e-38
39.26503597 31.48997466 -95.72161952 0 0 1 1.622643086e-38
39.36506536 31.360033 -96.04880094 0 0 1 1.641082212e-38
39.50388361 31.26958301 -96.50285497 0 0 1 1.594984397e-38
39.61136688 31.14393006 -96.85441688 0 0 1 1.558106145e-38
39.74888594 31.04788527 -97.30422148 0 0 1 1.585764834e-38
39.98159303 31.04818964 -98.06537208 0 0 1 1.548886582e-38
40.10656695 30.93403444 -98.47414334 0 0 1 1.530447456e-38
40.24382215 30.83037652 -98.92308488 0 0 1 1.502788767e-38
40.46919466 30.81361106 -99.66024514 0 0 1 1.502788767e-38
40.61894523 30.71733394 -100.1500572 0 0 1 1.530447456e-38
40.75925221 30.60923618 -100.6089806 0 0 1 1.530447456e-38
40.99371652 30.59180449 -101.3758788 0 0 1 1.465910515e-38
41.24135931 30.58347994 -102.1858819 0 0 1 1.438251826e-38
41.4931251 30.57515112 -103.0093707 0 0 1 1.521227893e-38
41.73759348 30.55572287 -103.8089907 0 0 1 1.392154011e-38
42.02019712 30.56874551 -104.7333456 0 0 1 1.364495322e-38
42.28991181 30.56499496 -105.6155426 0 0 1 1.290738818e-38
42.6245342 30.61779542 -106.7100431 0 0 1 1.253860566e-38
43.05137863 30.75098474 -108.1061883 0 0 1 1.069469306e-38
43.52975467 30.92479541 -109.6708859 0 0 1 1.124786684e-38
44.27333673 31.33332182 -112.1030332 0 0 1 7.191259129e-39
104.629641 74.26266576 -309.5196091 0 0 1 2.074401672e-38
104.6719581 73.52993815 -309.658022 0 0 1 2.092840798e-38
104.6334562 72.73440908 -309.5320879 0 0 1 2.102060361e-38
104.6144433 71.95432438 -309.4698995 0 0 1 2.065182109e-38
104.6144433 71.18885285 -309.4698995 0 0 1 2.083621235e-38
104.6953693 70.48361615 -309.7345966 0 0 1 2.148158176e-38
104.6526271 69.68602185 -309.5947933 0 0 1 2.157377739e-38
104.6449397 68.91464385 -309.5696487 0 0 1 2.148158176e-38
104.6836343 68.1767876 -309.6962132 0 0 1 2.157377739e-38
104.6334562 67.37503156 -309.5320879 0 0 1 2.148158176e-38
104.6334562 66.60940621 -309.5320879 0 0 1 2.148158176e-38
104.6220296 65.83583049 -309.4947132 0 0 1 2.166597302e-38
104.6258322 65.07291255 -309.5071509 0 0 1 2.175816865e-38
104.6144433 64.29960902 -309.4698995 0 0 1 2.092840798e-38
104.6449397 63.55461599 -309.5696487 0 0 1 2.148158176e-38
104.6372777 62.78381464 -309.5445874 0 0 1 2.138938613e-38
104.6144433 62.00319442 -309.4698995 0 0 1 2.083621235e-38
104.6144433 61.23772288 -309.4698995 0 0 1 2.092840798e-38
104.6258322 60.47953049 -309.5071509 0 0 1 2.166597302e-38
104.6220296 59.71156719 -309.4947132 0 0 1 2.175816865e-38
104.6411055 58.95791785 -309.5571077 0 0 1 2.166597302e-38
104.6487802 58.19694958 -309.5822105 0 0 1 2.166597302e-38
104.6144433 57.4103652 -309.4698995 0 0 1 2.120499487e-38
104.629641 56.65399244 -309.5196091 0 0 1 2.175816865e-38
104.629641 55.88839794 -309.5196091 0 0 1 2.166597302e-38
104.6144433 55.11395059 -309.4698995 0 0 1 2.12971905e-38
104.6144433 54.34847906 -309.4698995 0 0 1 2.138938613e-38
104.6144433 53.58300752 -309.4698995 0 0 1 2.138938613e-38
104.6144433 52.81753598 -309.4698995 0 0 1 2.138938613e-38
104.6144433 52.05206445 -309.4698995 0 0 1 2.138938613e-38
104.6144433 51.28659291 -309.4698995 0 0 1 2.138938613e-38
104.6144433 50.52112138 -309.4698995 0 0 1 2.138938613e-38
104.6144433 49.75564984 -309.4698995 0 0 1 2.138938613e-38
104.6144433 48.9901783 -309.4698995 0 0 1 2.138938613e-38
104.6220296 48.2285735 -309.4947132 0 0 1 2.185036428e-38
104.6144433 47.45923523 -309.4698995 0 0 1 2.157377739e-38
104.6144433 46.6937637 -309.4698995 0 0 1 2.194255991e-38
104.6144433 45.92829216 -309.4698995 0 0 1 2.148158176e-38
104.6144433 45.16282062 -309.4698995 0 0 1 2.157377739e-38
104.6144433 44.39734909 -309.4698995 0 0 1 2.166597302e-38
104.6182333 43.63362534 -309.4822961 0 0 1 2.185036428e-38
104.6144433 42.86640602 -309.4698995 0 0 1 2.175816865e-38
104.6144433 42.10093448 -309.4698995 0 0 1 2.166597302e-38
104.6144433 41.33546294 -309.4698995 0 0 1 2.166597302e-38
104.6144433 40.56999141 -309.4698995 0 0 1 2.157377739e-38
104.6144433 39.80451987 -309.4698995 0 0 1 2.157377739e-38
104.6449397 39.05163151 -309.5696487 0 0 1 2.185036428e-38
104.6220296 38.27664563 -309.4947132 0 0 1 2.194255991e-38
104.6144433 37.50810526 -309.4698995 0 0 1 2.194255991e-38
104.6144433 36.74263373 -309.4698995 0 0 1 2.194255991e-38
104.6144433 35.97716219 -309.4698995 0 0 1 2.212695117e-38
104.6144433 35.21169066 -309.4698995 0 0 1 2.22191468e-38
104.6144433 34.44621912 -309.4698995 0 0 1 2.203475554e-38
104.6144433 33.68074758 -309.4698995 0 0 1 2.203475554e-38
104.6144433 32.91527605 -309.4698995 0 0 1 2.231134243e-38
104.6144433 32.14980451 -309.4698995 0 0 1 2.231134243e-38
104.6144433 31.38433298 -309.4698995 0 0 1 2.22191468e-38
104.6144433 30.61886144 -309.4698995 0 0 1 2.22191468e-38
104.6144433 29.8533899 -309.4698995 0 0 1 2.22191468e-38
104.6144433 29.08791837 -309.4698995 0 0 1 2.22191468e-38
104.6144433 28.32244683 -309.4698995 0 0 1 2.212695117e-38
104.6144433 27.5569753 -309.4698995 0 0 1 2.185036428e-38
104.6144433 26.79150376 -309.4698995 0 0 1 2.203475554e-38
104.6144433 26.02603222 -309.4698995 0 0 1 2.22191468e-38
104.6144433 25.26056069 -309.4698995 0 0 1 2.22191468e-38
104.6144433 24.49508915 -309.4698995 0 0 1 2.22191468e-38
104.6144433 23.72961762 -309.4698995 0 0 1 2.22191468e-38
104.6144433 22.96414608 -309.4698995 0 0 1 2.231134243e-38
104.6144433 22.19867454 -309.4698995 0 0 1 2.231134243e-38
104.6144433 21.43320301 -309.4698995 0 0 1 2.231134243e-38
104.6144433 20.66773147 -309.4698995 0 0 1 2.231134243e-38
104.6144433 19.90225994 -309.4698995 0 0 1 2.249573369e-38
104.6144433 19.1367884 -309.4698995 0 0 1 2.231134243e-38
104.6144433 18.37131686 -309.4698995 0 0 1 2.231134243e-38
104.6144433 17.60584533 -309.4698995 0 0 1 2.231134243e-38
104.6144433 16.84037379 -309.4698995 0 0 1 2.231134243e-38
104.6144433 16.07490226 -309.4698995 0 0 1 2.240353806e-38
104.6144433 15.30943072 -309.4698995 0 0 1 2.231134243e-38
104.6144433 14.54395918 -309.4698995 0 0 1 2.22191468e-38
104.6144433 13.77848765 -309.4698995 0 0 1 2.22191468e-38
104.6144433 13.01301611 -309.4698995 0 0 1 2.231134243e-38
104.6144433 12.24754458 -309.4698995 0 0 1 2.22191468e-38
104.6144433 11.48207304 -309.4698995 0 0 1 2.231134243e-38
